ncols 415
nrows 32
xllcorner 6120
yllcorner 4560
cellsize 30.0
nodata_value -9999.0
-9999.0 -9999.0 -9999.0 -9999.0 -9999.0 -9999.0 -9999.0 -9999.0 -9999.0 -9999.0 -9999.0 -9999.0 -9999.0 -9999.0 -9999.0 -9999.0 -9999.0 -9999.0 -9999.0 -9999.0 -9999.0 -9999.0 -9999.0 -9999.0 -9999.0 -9999.0 -9999.0 -9999.0 -9999.0 -9999.0 -9999.0 -9999.0 -9999.0 -9999.0 -9999.0 -9999.0 -9999.0 -9999.0 -9999.0 -9999.0 -9999.0 -9999.0 -9999.0 -9999.0 -9999.0 -9999.0 -9999.0 -9999.0 -9999.0 -9999.0 -9999.0 -9999.0 -9999.0 -9999.0 -9999.0 -9999.0 -9999.0 -9999.0 -9999.0 -9999.0 -9999.0 -9999.0 -9999.0 -9999.0 -9999.0 -9999.0 -9999.0 -9999.0 -9999.0 -9999.0 -9999.0 -9999.0 -9999.0 -9999.0 -9999.0 -9999.0 -9999.0 -9999.0 -9999.0 -9999.0 -9999.0 -9999.0 -9999.0 -9999.0 -9999.0 -9999.0 -9999.0 -9999.0 -9999.0 -9999.0 -9999.0 -9999.0 -9999.0 -9999.0 -9999.0 -9999.0 -9999.0 -9999.0 -9999.0 -9999.0 -9999.0 -9999.0 -9999.0 -9999.0 -9999.0 -9999.0 -9999.0 -9999.0 -9999.0 -9999.0 -9999.0 -9999.0 -9999.0 -9999.0 -9999.0 -9999.0 -9999.0 818.0 819.0 819.0 820.0 825.0 835.0 848.0 865.0 880.0 902.0 922.0 935.0 942.0 945.0 946.0 929.0 922.0 908.0 886.0 877.0 869.0 858.0 836.0 828.0 823.0 821.0 816.0 809.0 802.0 790.0 781.0 775.0 772.0 764.0 759.0 753.0 739.0 732.0 730.0 732.0 723.0 728.0 730.0 718.0 715.0 708.0 699.0 686.0 686.0 677.0 665.0 662.0 660.0 657.0 647.0 645.0 642.0 640.0 633.0 633.0 634.0 635.0 638.0 640.0 642.0 642.0 646.0 647.0 653.0 658.0 661.0 661.0 676.0 681.0 687.0 696.0 700.0 704.0 709.0 719.0 730.0 742.0 759.0 775.0 790.0 794.0 804.0 808.0 810.0 809.0 820.0 816.0 815.0 830.0 833.0 833.0 841.0 866.0 877.0 885.0 913.0 928.0 942.0 957.0 987.0 1003.0 1010.0 1036.0 1034.0 1036.0 1039.0 1043.0 1034.0 1025.0 1024.0 1015.0 1011.0 1007.0 1018.0 1018.0 1020.0 1029.0 1057.0 1066.0 1072.0 1081.0 1083.0 1085.0 1087.0 1086.0 1088.0 1091.0 1087.0 1090.0 1091.0 1092.0 1079.0 1075.0 1072.0 1063.0 1059.0 1059.0 1060.0 1055.0 1055.0 1057.0 1062.0 1059.0 1060.0 1061.0 1055.0 1060.0 1063.0 1064.0 1060.0 1058.0 1055.0 1044.0 1038.0 1029.0 1026.0 1014.0 1016.0 1017.0 1011.0 1014.0 1017.0 1020.0 1015.0 1016.0 1016.0 1008.0 1008.0 1012.0 1017.0 1016.0 1019.0 1023.0 1027.0 1025.0 1028.0 1028.0 1019.0 1014.0 1012.0 1013.0 1013.0 1013.0 1017.0 1016.0 1018.0 1020.0 1023.0 1026.0 1031.0 1038.0 1043.0 1050.0 1056.0 1064.0 1070.0 1079.0 1088.0 1104.0 1116.0 1124.0 1133.0 1151.0 1166.0 1181.0 1197.0 1208.0 1223.0 1235.0 1250.0 1260.0 1270.0 1279.0 1306.0 1323.0 1341.0 1367.0 1388.0 1404.0 1411.0 1421.0 1422.0 1424.0 1428.0 1431.0 1436.0 1439.0 1444.0 1443.0 -9999.0 -9999.0 -9999.0 -9999.0 -9999.0 -9999.0 -9999.0 -9999.0 -9999.0 -9999.0 -9999.0 -9999.0 -9999.0 -9999.0 -9999.0 -9999.0 -9999.0 -9999.0 -9999.0 -9999.0 -9999.0 -9999.0 -9999.0 -9999.0 -9999.0 -9999.0 -9999.0 -9999.0 -9999.0 -9999.0 -9999.0 -9999.0 -9999.0 -9999.0 -9999.0 -9999.0 -9999.0 -9999.0 -9999.0 -9999.0 -9999.0 -9999.0 -9999.0 -9999.0 -9999.0 -9999.0 -9999.0 -9999.0 -9999.0 -9999.0 -9999.0 -9999.0 -9999.0 -9999.0 -9999.0 -9999.0 -9999.0 -9999.0 -9999.0 -9999.0 -9999.0 -9999.0 -9999.0 -9999.0
-9999.0 -9999.0 -9999.0 -9999.0 -9999.0 -9999.0 -9999.0 -9999.0 -9999.0 -9999.0 -9999.0 -9999.0 -9999.0 -9999.0 -9999.0 -9999.0 -9999.0 -9999.0 -9999.0 -9999.0 -9999.0 -9999.0 -9999.0 -9999.0 -9999.0 -9999.0 -9999.0 -9999.0 -9999.0 -9999.0 -9999.0 -9999.0 -9999.0 -9999.0 -9999.0 -9999.0 -9999.0 -9999.0 -9999.0 -9999.0 -9999.0 -9999.0 -9999.0 -9999.0 -9999.0 -9999.0 -9999.0 -9999.0 -9999.0 -9999.0 -9999.0 -9999.0 -9999.0 -9999.0 -9999.0 -9999.0 -9999.0 -9999.0 -9999.0 -9999.0 -9999.0 -9999.0 -9999.0 -9999.0 -9999.0 -9999.0 -9999.0 -9999.0 -9999.0 -9999.0 -9999.0 -9999.0 -9999.0 -9999.0 -9999.0 -9999.0 -9999.0 -9999.0 -9999.0 -9999.0 -9999.0 -9999.0 -9999.0 -9999.0 -9999.0 -9999.0 -9999.0 -9999.0 -9999.0 -9999.0 -9999.0 -9999.0 -9999.0 -9999.0 -9999.0 -9999.0 -9999.0 -9999.0 -9999.0 -9999.0 -9999.0 -9999.0 -9999.0 -9999.0 -9999.0 -9999.0 -9999.0 -9999.0 -9999.0 -9999.0 -9999.0 -9999.0 -9999.0 -9999.0 -9999.0 -9999.0 -9999.0 817.0 816.0 816.0 818.0 826.0 837.0 850.0 865.0 880.0 901.0 921.0 923.0 933.0 938.0 937.0 918.0 907.0 896.0 879.0 879.0 872.0 865.0 843.0 832.0 826.0 821.0 813.0 807.0 799.0 785.0 778.0 773.0 769.0 757.0 753.0 746.0 731.0 719.0 716.0 719.0 711.0 714.0 714.0 703.0 704.0 702.0 698.0 684.0 678.0 670.0 665.0 654.0 652.0 650.0 641.0 640.0 637.0 635.0 630.0 632.0 634.0 636.0 637.0 639.0 641.0 643.0 645.0 648.0 656.0 659.0 665.0 671.0 684.0 687.0 692.0 699.0 703.0 707.0 712.0 723.0 734.0 746.0 759.0 773.0 787.0 796.0 805.0 815.0 815.0 821.0 836.0 837.0 834.0 852.0 848.0 851.0 857.0 887.0 895.0 902.0 931.0 946.0 960.0 975.0 1010.0 1026.0 1037.0 1057.0 1055.0 1054.0 1051.0 1063.0 1052.0 1042.0 1033.0 1034.0 1026.0 1022.0 1034.0 1034.0 1041.0 1048.0 1071.0 1076.0 1079.0 1083.0 1084.0 1085.0 1086.0 1084.0 1085.0 1085.0 1079.0 1081.0 1081.0 1081.0 1072.0 1071.0 1069.0 1067.0 1057.0 1050.0 1052.0 1046.0 1045.0 1049.0 1056.0 1054.0 1054.0 1053.0 1049.0 1055.0 1059.0 1060.0 1053.0 1051.0 1050.0 1032.0 1032.0 1024.0 1017.0 1006.0 1009.0 1010.0 1004.0 1007.0 1011.0 1013.0 1009.0 1009.0 1009.0 1008.0 1003.0 1008.0 1013.0 1011.0 1014.0 1017.0 1021.0 1019.0 1022.0 1022.0 1017.0 1014.0 1011.0 1010.0 1009.0 1011.0 1014.0 1012.0 1014.0 1018.0 1021.0 1025.0 1030.0 1036.0 1038.0 1047.0 1055.0 1062.0 1075.0 1083.0 1093.0 1104.0 1111.0 1120.0 1129.0 1147.0 1160.0 1174.0 1191.0 1216.0 1230.0 1240.0 1257.0 1267.0 1277.0 1288.0 1318.0 1334.0 1352.0 1379.0 1403.0 1415.0 1419.0 1426.0 1427.0 1427.0 1433.0 1433.0 1436.0 1439.0 1445.0 1447.0 -9999.0 -9999.0 -9999.0 -9999.0 -9999.0 -9999.0 -9999.0 -9999.0 -9999.0 -9999.0 -9999.0 -9999.0 -9999.0 -9999.0 -9999.0 -9999.0 -9999.0 -9999.0 -9999.0 -9999.0 -9999.0 -9999.0 -9999.0 -9999.0 -9999.0 -9999.0 -9999.0 -9999.0 -9999.0 -9999.0 -9999.0 -9999.0 -9999.0 -9999.0 -9999.0 -9999.0 -9999.0 -9999.0 -9999.0 -9999.0 -9999.0 -9999.0 -9999.0 -9999.0 -9999.0 -9999.0 -9999.0 -9999.0 -9999.0 -9999.0 -9999.0 -9999.0 -9999.0 -9999.0 -9999.0 -9999.0 -9999.0 -9999.0 -9999.0 -9999.0 -9999.0 -9999.0 -9999.0 -9999.0
-9999.0 -9999.0 -9999.0 -9999.0 -9999.0 -9999.0 -9999.0 -9999.0 -9999.0 -9999.0 -9999.0 -9999.0 -9999.0 -9999.0 -9999.0 -9999.0 -9999.0 -9999.0 -9999.0 -9999.0 -9999.0 -9999.0 -9999.0 -9999.0 -9999.0 -9999.0 -9999.0 -9999.0 -9999.0 -9999.0 -9999.0 -9999.0 -9999.0 -9999.0 -9999.0 -9999.0 -9999.0 -9999.0 -9999.0 -9999.0 -9999.0 -9999.0 -9999.0 -9999.0 -9999.0 -9999.0 -9999.0 -9999.0 -9999.0 -9999.0 -9999.0 -9999.0 -9999.0 -9999.0 -9999.0 -9999.0 -9999.0 -9999.0 -9999.0 -9999.0 -9999.0 -9999.0 -9999.0 -9999.0 -9999.0 -9999.0 -9999.0 -9999.0 -9999.0 -9999.0 -9999.0 -9999.0 -9999.0 -9999.0 -9999.0 -9999.0 -9999.0 -9999.0 -9999.0 -9999.0 -9999.0 -9999.0 -9999.0 -9999.0 -9999.0 -9999.0 -9999.0 -9999.0 -9999.0 -9999.0 -9999.0 -9999.0 -9999.0 -9999.0 -9999.0 -9999.0 -9999.0 -9999.0 -9999.0 -9999.0 -9999.0 -9999.0 -9999.0 -9999.0 -9999.0 -9999.0 -9999.0 -9999.0 -9999.0 -9999.0 -9999.0 -9999.0 -9999.0 -9999.0 -9999.0 822.0 818.0 816.0 813.0 814.0 817.0 825.0 836.0 849.0 865.0 881.0 897.0 911.0 907.0 907.0 918.0 925.0 914.0 906.0 896.0 886.0 873.0 867.0 858.0 836.0 829.0 823.0 818.0 809.0 804.0 794.0 778.0 773.0 768.0 762.0 750.0 747.0 747.0 736.0 727.0 714.0 706.0 695.0 699.0 701.0 703.0 692.0 691.0 689.0 675.0 670.0 664.0 658.0 646.0 643.0 642.0 635.0 634.0 631.0 630.0 626.0 628.0 632.0 638.0 640.0 641.0 642.0 651.0 651.0 652.0 662.0 666.0 672.0 679.0 689.0 692.0 696.0 699.0 706.0 710.0 715.0 724.0 737.0 750.0 750.0 759.0 769.0 780.0 783.0 798.0 814.0 827.0 843.0 849.0 854.0 871.0 871.0 873.0 880.0 907.0 914.0 921.0 950.0 962.0 975.0 990.0 1026.0 1026.0 1042.0 1052.0 1071.0 1072.0 1069.0 1072.0 1063.0 1053.0 1044.0 1049.0 1043.0 1038.0 1053.0 1054.0 1059.0 1065.0 1080.0 1081.0 1082.0 1084.0 1084.0 1084.0 1084.0 1082.0 1081.0 1081.0 1079.0 1073.0 1072.0 1072.0 1067.0 1066.0 1066.0 1063.0 1052.0 1041.0 1042.0 1033.0 1035.0 1046.0 1052.0 1050.0 1050.0 1046.0 1042.0 1042.0 1049.0 1052.0 1045.0 1044.0 1043.0 1022.0 1016.0 1008.0 1005.0 1003.0 1003.0 1004.0 1004.0 1002.0 1006.0 1007.0 1004.0 1004.0 1003.0 1001.0 998.0 1004.0 1004.0 1002.0 1006.0 1009.0 1011.0 1010.0 1014.0 1017.0 1012.0 1010.0 1008.0 1007.0 1006.0 1008.0 1010.0 1008.0 1012.0 1016.0 1020.0 1023.0 1029.0 1034.0 1038.0 1039.0 1049.0 1059.0 1070.0 1079.0 1088.0 1098.0 1115.0 1124.0 1135.0 1157.0 1172.0 1185.0 1200.0 1225.0 1236.0 1246.0 1264.0 1274.0 1286.0 1303.0 1333.0 1346.0 1363.0 1363.0 1393.0 1410.0 1422.0 1433.0 1433.0 1433.0 1433.0 1440.0 1441.0 1443.0 1449.0 1449.0 -9999.0 -9999.0 -9999.0 -9999.0 -9999.0 -9999.0 -9999.0 -9999.0 -9999.0 -9999.0 -9999.0 -9999.0 -9999.0 -9999.0 -9999.0 -9999.0 -9999.0 -9999.0 -9999.0 -9999.0 -9999.0 -9999.0 -9999.0 -9999.0 -9999.0 -9999.0 -9999.0 -9999.0 -9999.0 -9999.0 -9999.0 -9999.0 -9999.0 -9999.0 -9999.0 -9999.0 -9999.0 -9999.0 -9999.0 -9999.0 -9999.0 -9999.0 -9999.0 -9999.0 -9999.0 -9999.0 -9999.0 -9999.0 -9999.0 -9999.0 -9999.0 -9999.0 -9999.0 -9999.0 -9999.0 -9999.0 -9999.0 -9999.0 -9999.0 -9999.0 -9999.0 -9999.0 -9999.0 -9999.0
-9999.0 -9999.0 -9999.0 -9999.0 -9999.0 -9999.0 -9999.0 -9999.0 -9999.0 -9999.0 -9999.0 -9999.0 -9999.0 -9999.0 -9999.0 -9999.0 -9999.0 -9999.0 -9999.0 -9999.0 -9999.0 -9999.0 -9999.0 -9999.0 -9999.0 -9999.0 -9999.0 -9999.0 -9999.0 -9999.0 -9999.0 -9999.0 -9999.0 -9999.0 -9999.0 -9999.0 -9999.0 -9999.0 -9999.0 -9999.0 -9999.0 -9999.0 -9999.0 -9999.0 -9999.0 -9999.0 -9999.0 -9999.0 -9999.0 -9999.0 -9999.0 -9999.0 -9999.0 -9999.0 -9999.0 -9999.0 -9999.0 -9999.0 -9999.0 -9999.0 -9999.0 -9999.0 -9999.0 -9999.0 -9999.0 -9999.0 -9999.0 -9999.0 -9999.0 -9999.0 -9999.0 -9999.0 -9999.0 -9999.0 -9999.0 -9999.0 -9999.0 -9999.0 -9999.0 -9999.0 -9999.0 -9999.0 -9999.0 -9999.0 -9999.0 -9999.0 -9999.0 -9999.0 -9999.0 -9999.0 -9999.0 -9999.0 -9999.0 -9999.0 -9999.0 -9999.0 -9999.0 -9999.0 -9999.0 -9999.0 -9999.0 -9999.0 -9999.0 -9999.0 -9999.0 -9999.0 -9999.0 -9999.0 -9999.0 -9999.0 -9999.0 -9999.0 -9999.0 -9999.0 828.0 821.0 816.0 814.0 810.0 811.0 816.0 824.0 824.0 835.0 850.0 866.0 877.0 887.0 897.0 894.0 905.0 914.0 902.0 896.0 886.0 878.0 866.0 859.0 848.0 828.0 823.0 819.0 815.0 803.0 796.0 786.0 779.0 773.0 767.0 762.0 747.0 744.0 741.0 736.0 721.0 710.0 699.0 684.0 687.0 689.0 691.0 682.0 682.0 678.0 666.0 661.0 656.0 651.0 639.0 639.0 637.0 627.0 628.0 627.0 625.0 627.0 630.0 635.0 643.0 645.0 648.0 650.0 657.0 658.0 659.0 662.0 674.0 680.0 685.0 694.0 696.0 698.0 698.0 707.0 708.0 712.0 719.0 723.0 737.0 749.0 754.0 765.0 773.0 778.0 791.0 809.0 827.0 844.0 856.0 868.0 882.0 888.0 894.0 899.0 924.0 924.0 930.0 939.0 963.0 974.0 987.0 1017.0 1038.0 1052.0 1063.0 1081.0 1083.0 1080.0 1079.0 1072.0 1064.0 1056.0 1063.0 1060.0 1055.0 1069.0 1070.0 1073.0 1073.0 1086.0 1086.0 1085.0 1084.0 1085.0 1083.0 1082.0 1080.0 1078.0 1076.0 1074.0 1067.0 1067.0 1067.0 1063.0 1063.0 1061.0 1058.0 1048.0 1034.0 1031.0 1023.0 1032.0 1032.0 1044.0 1043.0 1044.0 1039.0 1023.0 1032.0 1040.0 1044.0 1029.0 1030.0 1028.0 1022.0 1001.0 998.0 999.0 998.0 999.0 999.0 1000.0 998.0 1001.0 1002.0 998.0 998.0 999.0 997.0 988.0 993.0 998.0 997.0 1001.0 1004.0 1007.0 1007.0 1010.0 1012.0 1008.0 1006.0 1004.0 1004.0 1003.0 1005.0 1006.0 1008.0 1009.0 1009.0 1014.0 1016.0 1022.0 1028.0 1033.0 1045.0 1054.0 1063.0 1072.0 1080.0 1090.0 1102.0 1117.0 1129.0 1143.0 1170.0 1183.0 1198.0 1211.0 1232.0 1243.0 1253.0 1253.0 1272.0 1282.0 1301.0 1330.0 1345.0 1360.0 1374.0 1403.0 1419.0 1429.0 1439.0 1440.0 1441.0 1440.0 1447.0 1447.0 1448.0 1453.0 1451.0 -9999.0 -9999.0 -9999.0 -9999.0 -9999.0 -9999.0 -9999.0 -9999.0 -9999.0 -9999.0 -9999.0 -9999.0 -9999.0 -9999.0 -9999.0 -9999.0 -9999.0 -9999.0 -9999.0 -9999.0 -9999.0 -9999.0 -9999.0 -9999.0 -9999.0 -9999.0 -9999.0 -9999.0 -9999.0 -9999.0 -9999.0 -9999.0 -9999.0 -9999.0 -9999.0 -9999.0 -9999.0 -9999.0 -9999.0 -9999.0 -9999.0 -9999.0 -9999.0 -9999.0 -9999.0 -9999.0 -9999.0 -9999.0 -9999.0 -9999.0 -9999.0 -9999.0 -9999.0 -9999.0 -9999.0 -9999.0 -9999.0 -9999.0 -9999.0 -9999.0 -9999.0 -9999.0 -9999.0 -9999.0
-9999.0 -9999.0 -9999.0 -9999.0 -9999.0 -9999.0 -9999.0 -9999.0 -9999.0 -9999.0 -9999.0 -9999.0 -9999.0 -9999.0 -9999.0 -9999.0 -9999.0 -9999.0 -9999.0 -9999.0 -9999.0 -9999.0 -9999.0 -9999.0 -9999.0 -9999.0 -9999.0 -9999.0 -9999.0 -9999.0 -9999.0 -9999.0 -9999.0 -9999.0 -9999.0 -9999.0 -9999.0 -9999.0 -9999.0 -9999.0 -9999.0 -9999.0 -9999.0 -9999.0 -9999.0 -9999.0 -9999.0 -9999.0 -9999.0 -9999.0 -9999.0 -9999.0 -9999.0 -9999.0 -9999.0 -9999.0 -9999.0 -9999.0 -9999.0 -9999.0 -9999.0 -9999.0 -9999.0 -9999.0 -9999.0 -9999.0 -9999.0 -9999.0 -9999.0 -9999.0 -9999.0 -9999.0 -9999.0 -9999.0 -9999.0 -9999.0 -9999.0 -9999.0 -9999.0 -9999.0 -9999.0 -9999.0 -9999.0 -9999.0 -9999.0 -9999.0 -9999.0 -9999.0 -9999.0 -9999.0 -9999.0 -9999.0 -9999.0 -9999.0 -9999.0 -9999.0 -9999.0 -9999.0 -9999.0 -9999.0 -9999.0 -9999.0 -9999.0 -9999.0 -9999.0 -9999.0 -9999.0 -9999.0 -9999.0 -9999.0 -9999.0 827.0 828.0 829.0 825.0 818.0 818.0 812.0 805.0 807.0 810.0 816.0 825.0 837.0 852.0 863.0 869.0 874.0 882.0 884.0 896.0 903.0 891.0 883.0 876.0 870.0 855.0 848.0 836.0 821.0 815.0 814.0 812.0 800.0 794.0 788.0 779.0 768.0 762.0 754.0 740.0 736.0 734.0 730.0 713.0 704.0 693.0 675.0 675.0 677.0 679.0 670.0 670.0 670.0 659.0 656.0 653.0 648.0 636.0 632.0 629.0 622.0 622.5 623.0 624.0 633.0 637.0 640.0 643.0 651.0 654.0 657.0 666.0 667.0 668.0 668.0 679.0 682.0 687.0 696.0 700.0 702.0 704.0 713.0 714.0 717.0 724.0 727.0 735.0 746.0 752.0 763.0 771.0 778.0 789.0 808.0 826.0 843.0 859.0 859.0 872.0 888.0 898.0 908.0 927.0 934.0 942.0 952.0 971.0 983.0 998.0 1025.0 1045.0 1061.0 1074.0 1093.0 1092.0 1087.0 1086.0 1079.0 1073.0 1067.0 1079.0 1077.0 1074.0 1070.0 1081.0 1082.0 1084.0 1089.0 1088.0 1087.0 1086.0 1085.0 1083.0 1081.0 1077.0 1076.0 1073.0 1069.0 1061.0 1061.0 1062.0 1059.0 1058.0 1058.0 1056.0 1049.0 1041.0 1029.0 1018.5 1020.0 1031.0 1039.0 1034.0 1031.0 1025.0 1023.0 1018.0 1024.0 1026.0 1012.0 1011.0 1009.0 1005.0 995.0 995.0 997.0 993.0 994.0 995.0 995.0 992.0 995.0 997.0 993.0 992.0 991.0 987.0 981.0 984.0 991.0 997.0 995.0 999.0 1002.0 1003.0 1006.0 1007.0 1008.0 1002.0 1002.0 1000.0 1000.0 1001.0 1002.0 1003.0 1002.0 1006.0 1012.0 1015.0 1021.0 1027.0 1036.0 1049.0 1058.0 1065.0 1072.0 1080.0 1089.0 1103.0 1121.0 1140.0 1156.0 1170.0 1185.0 1197.0 1211.0 1232.0 1242.0 1252.0 1262.0 1281.0 1299.0 1316.0 1343.0 1357.0 1373.0 1387.0 1415.0 1427.0 1435.0 1447.0 1448.0 1448.0 1447.0 1454.0 1453.0 1453.0 1460.0 1458.0 -9999.0 -9999.0 -9999.0 -9999.0 -9999.0 -9999.0 -9999.0 -9999.0 -9999.0 -9999.0 -9999.0 -9999.0 -9999.0 -9999.0 -9999.0 -9999.0 -9999.0 -9999.0 -9999.0 -9999.0 -9999.0 -9999.0 -9999.0 -9999.0 -9999.0 -9999.0 -9999.0 -9999.0 -9999.0 -9999.0 -9999.0 -9999.0 -9999.0 -9999.0 -9999.0 -9999.0 -9999.0 -9999.0 -9999.0 -9999.0 -9999.0 -9999.0 -9999.0 -9999.0 -9999.0 -9999.0 -9999.0 -9999.0 -9999.0 -9999.0 -9999.0 -9999.0 -9999.0 -9999.0 -9999.0 -9999.0 -9999.0 -9999.0 -9999.0 -9999.0 -9999.0 -9999.0 -9999.0 -9999.0
-9999.0 -9999.0 -9999.0 -9999.0 -9999.0 -9999.0 -9999.0 -9999.0 -9999.0 -9999.0 -9999.0 -9999.0 -9999.0 -9999.0 -9999.0 -9999.0 -9999.0 -9999.0 -9999.0 -9999.0 -9999.0 -9999.0 -9999.0 -9999.0 -9999.0 -9999.0 -9999.0 -9999.0 -9999.0 -9999.0 -9999.0 -9999.0 -9999.0 -9999.0 -9999.0 -9999.0 -9999.0 -9999.0 -9999.0 -9999.0 -9999.0 -9999.0 -9999.0 -9999.0 -9999.0 -9999.0 -9999.0 -9999.0 -9999.0 -9999.0 -9999.0 -9999.0 -9999.0 -9999.0 -9999.0 -9999.0 -9999.0 -9999.0 -9999.0 -9999.0 -9999.0 -9999.0 -9999.0 -9999.0 -9999.0 -9999.0 -9999.0 -9999.0 -9999.0 -9999.0 -9999.0 -9999.0 -9999.0 -9999.0 -9999.0 -9999.0 -9999.0 -9999.0 -9999.0 -9999.0 -9999.0 -9999.0 -9999.0 -9999.0 -9999.0 -9999.0 -9999.0 -9999.0 -9999.0 -9999.0 -9999.0 -9999.0 -9999.0 -9999.0 -9999.0 -9999.0 -9999.0 -9999.0 -9999.0 -9999.0 -9999.0 -9999.0 -9999.0 -9999.0 -9999.0 -9999.0 -9999.0 -9999.0 -9999.0 -9999.0 834.0 824.0 820.0 823.0 826.0 817.0 812.0 807.0 803.0 806.0 811.0 817.0 827.0 838.0 851.0 853.0 857.0 863.0 871.0 880.0 889.0 893.0 878.0 878.0 870.0 863.0 845.0 841.0 831.0 821.0 796.0 800.0 802.0 788.0 783.0 779.0 772.0 762.0 756.0 748.0 735.0 728.0 724.0 721.0 704.0 698.0 698.0 682.0 669.0 666.0 667.0 659.0 661.0 660.0 651.0 647.0 644.0 640.0 629.0 625.0 621.0 622.0 622.0 625.0 629.0 638.0 642.0 645.0 648.0 654.0 658.0 662.0 673.0 675.0 676.0 677.0 687.0 690.0 693.0 703.0 706.0 709.0 711.0 723.0 724.0 723.0 724.0 737.0 736.0 742.0 753.0 764.0 764.0 772.0 778.0 790.0 807.0 819.0 837.0 856.0 874.0 889.0 904.0 917.0 931.0 938.0 948.0 960.0 976.0 989.0 1005.0 1028.0 1049.0 1071.0 1084.0 1098.0 1108.0 1101.0 1094.0 1095.0 1089.0 1084.0 1092.0 1090.0 1089.0 1084.0 1090.0 1089.0 1089.0 1089.0 1088.0 1088.0 1087.0 1086.0 1082.0 1079.0 1075.0 1073.0 1073.0 1068.0 1059.0 1058.0 1058.0 1055.0 1055.0 1055.0 1053.0 1043.0 1032.0 1022.0 1014.0 1017.0 1027.0 1032.0 1024.0 1017.0 1009.0 1010.0 1001.0 1008.0 1011.0 1001.0 1001.0 1000.0 998.0 989.0 989.0 991.0 989.0 990.0 990.0 991.0 988.0 991.0 993.0 993.0 985.0 982.0 979.0 970.0 975.0 986.0 991.0 990.0 995.0 995.0 995.0 998.0 1000.0 1002.0 998.0 998.0 998.0 1001.0 1000.0 999.0 1000.0 999.0 1003.0 1010.0 1016.0 1021.0 1028.0 1039.0 1052.0 1059.0 1065.0 1072.0 1074.0 1082.0 1091.0 1110.0 1130.0 1152.0 1171.0 1199.0 1212.0 1222.0 1243.0 1255.0 1263.0 1271.0 1298.0 1320.0 1332.0 1358.0 1372.0 1389.0 1402.0 1429.0 1437.0 1437.0 1453.0 1455.0 1456.0 1458.0 1465.0 1462.0 1461.0 1460.0 -9999.0 -9999.0 -9999.0 -9999.0 -9999.0 -9999.0 -9999.0 -9999.0 -9999.0 -9999.0 -9999.0 -9999.0 -9999.0 -9999.0 -9999.0 -9999.0 -9999.0 -9999.0 -9999.0 -9999.0 -9999.0 -9999.0 -9999.0 -9999.0 -9999.0 -9999.0 -9999.0 -9999.0 -9999.0 -9999.0 -9999.0 -9999.0 -9999.0 -9999.0 -9999.0 -9999.0 -9999.0 -9999.0 -9999.0 -9999.0 -9999.0 -9999.0 -9999.0 -9999.0 -9999.0 -9999.0 -9999.0 -9999.0 -9999.0 -9999.0 -9999.0 -9999.0 -9999.0 -9999.0 -9999.0 -9999.0 -9999.0 -9999.0 -9999.0 -9999.0 -9999.0 -9999.0 -9999.0 -9999.0 -9999.0
-9999.0 -9999.0 -9999.0 -9999.0 -9999.0 -9999.0 -9999.0 -9999.0 -9999.0 -9999.0 -9999.0 -9999.0 -9999.0 -9999.0 -9999.0 -9999.0 -9999.0 -9999.0 -9999.0 -9999.0 -9999.0 -9999.0 -9999.0 -9999.0 -9999.0 -9999.0 -9999.0 -9999.0 -9999.0 -9999.0 -9999.0 -9999.0 -9999.0 -9999.0 -9999.0 -9999.0 -9999.0 -9999.0 -9999.0 -9999.0 -9999.0 -9999.0 -9999.0 -9999.0 -9999.0 -9999.0 -9999.0 -9999.0 -9999.0 -9999.0 -9999.0 -9999.0 -9999.0 -9999.0 -9999.0 -9999.0 -9999.0 -9999.0 -9999.0 -9999.0 -9999.0 -9999.0 -9999.0 -9999.0 -9999.0 -9999.0 -9999.0 -9999.0 -9999.0 -9999.0 -9999.0 -9999.0 -9999.0 -9999.0 -9999.0 -9999.0 -9999.0 -9999.0 -9999.0 -9999.0 -9999.0 -9999.0 -9999.0 -9999.0 -9999.0 -9999.0 -9999.0 -9999.0 -9999.0 -9999.0 -9999.0 -9999.0 -9999.0 -9999.0 -9999.0 -9999.0 -9999.0 -9999.0 -9999.0 -9999.0 -9999.0 -9999.0 -9999.0 -9999.0 851.0 844.0 841.0 840.0 837.0 836.0 830.0 815.0 813.0 815.0 818.0 809.0 806.0 803.0 802.0 806.0 810.0 817.0 825.0 835.0 845.0 839.0 839.0 845.0 855.0 862.0 874.0 882.0 883.0 862.0 854.0 848.0 826.0 817.0 806.0 800.0 779.0 784.0 788.0 776.0 774.0 772.0 767.0 759.0 752.0 752.0 737.0 729.0 718.0 714.0 700.0 697.0 691.0 673.0 662.0 657.0 658.0 653.0 653.0 653.0 651.0 639.0 637.0 632.0 622.0 619.0 616.0 618.0 618.0 624.0 629.0 638.0 642.0 646.0 650.0 661.0 665.0 670.0 681.0 683.0 685.0 686.0 696.0 697.0 699.0 703.0 713.0 717.0 720.0 732.0 733.0 733.0 733.0 744.0 747.0 747.0 758.0 758.0 766.0 772.0 777.0 788.0 803.0 814.0 832.0 851.0 871.0 887.0 905.0 921.0 931.0 939.0 950.0 962.0 978.0 978.0 993.0 1010.0 1036.0 1056.0 1078.0 1105.0 1111.0 1107.0 1100.0 1101.0 1097.0 1094.0 1099.0 1099.0 1098.0 1093.0 1093.0 1091.0 1090.0 1089.0 1089.0 1088.0 1088.0 1087.0 1084.0 1080.0 1073.0 1071.0 1067.0 1062.0 1056.0 1055.0 1054.0 1055.0 1051.0 1051.0 1050.0 1038.0 1026.0 1015.0 1007.0 1013.0 1021.0 1025.0 1011.0 1011.0 1002.0 996.0 983.0 989.0 997.0 990.0 991.0 991.0 991.0 982.0 983.0 987.0 989.0 985.0 985.0 986.0 984.0 987.0 989.0 988.0 976.0 970.0 970.0 958.0 963.0 972.0 981.0 983.0 987.0 991.0 988.0 990.0 994.0 996.0 993.0 994.0 998.0 1001.0 1000.0 998.0 998.0 998.0 1003.0 1011.0 1016.0 1016.0 1021.0 1029.0 1044.0 1054.0 1059.0 1066.0 1077.0 1088.0 1098.0 1122.0 1141.0 1161.0 1181.0 1212.0 1223.0 1233.0 1257.0 1266.0 1273.0 1282.0 1326.0 1342.0 1349.0 1368.0 1380.0 1398.0 1409.0 1436.0 1445.0 1451.0 1453.0 1465.0 1466.0 1466.0 1471.0 1470.0 1468.0 1465.0 -9999.0 -9999.0 -9999.0 -9999.0 -9999.0 -9999.0 -9999.0 -9999.0 -9999.0 -9999.0 -9999.0 -9999.0 -9999.0 -9999.0 -9999.0 -9999.0 -9999.0 -9999.0 -9999.0 -9999.0 -9999.0 -9999.0 -9999.0 -9999.0 -9999.0 -9999.0 -9999.0 -9999.0 -9999.0 -9999.0 -9999.0 -9999.0 -9999.0 -9999.0 -9999.0 -9999.0 -9999.0 -9999.0 -9999.0 -9999.0 -9999.0 -9999.0 -9999.0 -9999.0 -9999.0 -9999.0 -9999.0 -9999.0 -9999.0 -9999.0 -9999.0 -9999.0 -9999.0 -9999.0 -9999.0 -9999.0 -9999.0 -9999.0 -9999.0 -9999.0 -9999.0 -9999.0 -9999.0 -9999.0 -9999.0
-9999.0 -9999.0 -9999.0 -9999.0 -9999.0 -9999.0 -9999.0 -9999.0 -9999.0 -9999.0 -9999.0 -9999.0 -9999.0 -9999.0 -9999.0 -9999.0 -9999.0 -9999.0 -9999.0 -9999.0 -9999.0 -9999.0 -9999.0 -9999.0 -9999.0 -9999.0 -9999.0 -9999.0 -9999.0 -9999.0 -9999.0 -9999.0 -9999.0 -9999.0 -9999.0 -9999.0 -9999.0 -9999.0 -9999.0 -9999.0 -9999.0 -9999.0 -9999.0 -9999.0 -9999.0 -9999.0 -9999.0 -9999.0 -9999.0 -9999.0 -9999.0 -9999.0 -9999.0 -9999.0 -9999.0 -9999.0 -9999.0 -9999.0 -9999.0 -9999.0 -9999.0 -9999.0 -9999.0 -9999.0 -9999.0 -9999.0 -9999.0 -9999.0 -9999.0 -9999.0 -9999.0 -9999.0 -9999.0 -9999.0 -9999.0 -9999.0 -9999.0 -9999.0 -9999.0 -9999.0 -9999.0 -9999.0 -9999.0 -9999.0 -9999.0 -9999.0 -9999.0 -9999.0 -9999.0 -9999.0 -9999.0 -9999.0 -9999.0 -9999.0 -9999.0 -9999.0 -9999.0 -9999.0 -9999.0 -9999.0 -9999.0 -9999.0 -9999.0 -9999.0 838.0 834.0 834.0 836.0 828.0 826.0 821.0 805.0 805.0 808.0 809.0 799.0 798.0 799.0 800.0 800.0 804.0 807.0 811.0 820.0 828.0 834.0 829.0 838.0 851.0 860.0 870.0 874.0 872.0 845.0 837.0 831.0 805.0 797.0 785.0 779.0 765.0 771.0 775.0 766.0 768.0 767.0 765.0 755.0 752.0 744.0 737.0 721.0 712.0 705.0 692.0 689.0 684.0 673.0 656.0 653.0 652.0 648.0 648.0 646.0 643.0 633.0 633.0 629.0 619.0 615.0 614.0 615.0 622.0 627.0 632.0 642.0 646.0 651.0 656.0 667.0 673.0 678.0 681.0 689.0 692.0 695.0 704.0 707.0 709.0 709.0 718.0 720.0 723.0 736.0 739.0 741.0 741.0 752.0 755.0 757.0 767.0 766.0 767.0 770.0 780.0 787.0 798.0 813.0 828.0 845.0 865.0 879.0 879.0 898.0 917.0 925.0 937.0 949.0 963.0 980.0 1001.0 1018.0 1046.0 1065.0 1087.0 1107.0 1110.0 1108.0 1105.0 1103.0 1101.0 1100.0 1100.0 1099.0 1098.0 1098.0 1095.0 1093.0 1091.0 1090.0 1090.0 1089.0 1088.0 1085.0 1081.0 1076.0 1073.0 1064.0 1060.0 1058.0 1052.0 1051.0 1051.0 1051.0 1047.0 1047.0 1045.0 1030.0 1018.0 1018.0 1007.0 997.0 1009.0 1015.0 1005.0 996.0 989.0 985.0 975.0 983.0 988.0 990.0 982.0 983.0 983.0 972.0 975.0 980.0 984.0 977.0 978.0 982.0 976.0 978.0 980.0 981.0 968.0 963.0 957.0 958.0 965.0 974.0 980.0 981.0 984.0 986.0 980.0 983.0 986.0 990.0 986.0 989.0 998.0 1001.0 999.0 999.0 995.0 993.0 997.0 1003.0 1011.0 1015.0 1021.0 1030.0 1045.0 1054.0 1061.0 1068.0 1087.0 1098.0 1110.0 1134.0 1151.0 1170.0 1193.0 1223.0 1234.0 1245.0 1257.0 1268.0 1277.0 1288.0 1334.0 1348.0 1358.0 1368.0 1405.0 1417.0 1427.0 1454.0 1461.0 1467.0 1465.0 1474.0 1472.0 1472.0 1478.0 1476.0 1474.0 -9999.0 -9999.0 -9999.0 -9999.0 -9999.0 -9999.0 -9999.0 -9999.0 -9999.0 -9999.0 -9999.0 -9999.0 -9999.0 -9999.0 -9999.0 -9999.0 -9999.0 -9999.0 -9999.0 -9999.0 -9999.0 -9999.0 -9999.0 -9999.0 -9999.0 -9999.0 -9999.0 -9999.0 -9999.0 -9999.0 -9999.0 -9999.0 -9999.0 -9999.0 -9999.0 -9999.0 -9999.0 -9999.0 -9999.0 -9999.0 -9999.0 -9999.0 -9999.0 -9999.0 -9999.0 -9999.0 -9999.0 -9999.0 -9999.0 -9999.0 -9999.0 -9999.0 -9999.0 -9999.0 -9999.0 -9999.0 -9999.0 -9999.0 -9999.0 -9999.0 -9999.0 -9999.0 -9999.0 -9999.0 -9999.0 -9999.0
-9999.0 -9999.0 -9999.0 -9999.0 -9999.0 -9999.0 -9999.0 -9999.0 -9999.0 -9999.0 -9999.0 -9999.0 -9999.0 -9999.0 -9999.0 -9999.0 -9999.0 -9999.0 -9999.0 -9999.0 -9999.0 -9999.0 -9999.0 -9999.0 -9999.0 -9999.0 -9999.0 -9999.0 -9999.0 -9999.0 -9999.0 -9999.0 -9999.0 -9999.0 -9999.0 -9999.0 -9999.0 -9999.0 -9999.0 -9999.0 -9999.0 -9999.0 -9999.0 -9999.0 -9999.0 -9999.0 -9999.0 -9999.0 -9999.0 -9999.0 -9999.0 -9999.0 -9999.0 -9999.0 -9999.0 -9999.0 -9999.0 -9999.0 -9999.0 -9999.0 -9999.0 -9999.0 -9999.0 -9999.0 -9999.0 -9999.0 -9999.0 -9999.0 -9999.0 -9999.0 -9999.0 -9999.0 -9999.0 -9999.0 -9999.0 -9999.0 -9999.0 -9999.0 -9999.0 -9999.0 -9999.0 -9999.0 -9999.0 -9999.0 -9999.0 -9999.0 -9999.0 -9999.0 -9999.0 -9999.0 -9999.0 -9999.0 -9999.0 -9999.0 -9999.0 -9999.0 -9999.0 -9999.0 -9999.0 -9999.0 -9999.0 -9999.0 -9999.0 837.0 828.0 824.0 824.0 826.0 817.0 815.0 810.0 793.0 796.0 796.0 799.0 789.0 790.0 792.0 797.0 797.0 800.0 804.0 804.0 811.0 817.0 823.0 822.0 834.0 848.0 856.0 863.0 864.0 857.0 827.0 817.0 812.0 790.0 783.0 777.0 771.0 756.0 759.0 763.0 766.0 760.0 760.0 759.0 739.0 735.0 733.0 729.0 711.0 705.0 698.0 684.0 680.0 673.0 664.0 652.0 652.0 648.0 641.0 641.0 641.0 640.0 632.0 628.0 624.0 613.0 613.0 612.0 617.0 626.0 630.0 636.0 642.0 650.0 655.0 661.0 672.0 679.0 684.0 684.0 692.0 694.0 699.0 708.0 711.0 714.0 716.0 726.0 728.0 732.0 742.0 746.0 748.0 749.0 759.0 762.0 765.0 774.0 775.0 774.0 774.0 790.0 795.0 795.0 801.0 823.0 831.0 841.0 858.0 876.0 892.0 909.0 925.0 943.0 953.0 975.0 997.0 1018.0 1033.0 1063.0 1080.0 1095.0 1106.0 1108.0 1107.0 1105.0 1104.0 1102.0 1101.0 1100.0 1098.0 1098.0 1097.0 1093.0 1091.0 1090.0 1090.0 1088.0 1088.0 1087.0 1079.0 1076.0 1071.0 1068.0 1059.0 1055.0 1054.0 1048.0 1047.0 1047.0 1046.0 1039.0 1039.0 1040.0 1028.0 1020.0 1008.0 998.0 994.0 1004.0 1007.0 1005.0 980.0 976.0 974.0 969.0 974.0 977.0 979.0 969.0 971.0 969.0 957.0 961.0 967.0 973.0 970.0 970.0 972.0 965.0 967.0 969.0 971.0 955.0 952.0 952.0 961.0 969.0 976.0 979.0 979.0 979.0 979.0 980.0 975.0 975.0 978.0 971.0 976.0 980.0 992.0 994.0 994.0 992.0 992.0 997.0 1003.0 1010.0 1015.0 1021.0 1032.0 1046.0 1055.0 1065.0 1074.0 1098.0 1110.0 1121.0 1134.0 1149.0 1162.0 1182.0 1220.0 1233.0 1245.0 1257.0 1277.0 1294.0 1315.0 1354.0 1365.0 1375.0 1389.0 1422.0 1433.0 1443.0 1461.0 1468.0 1472.0 1472.0 1474.0 1476.0 1476.0 1483.0 1490.0 1488.0 -9999.0 -9999.0 -9999.0 -9999.0 -9999.0 -9999.0 -9999.0 -9999.0 -9999.0 -9999.0 -9999.0 -9999.0 -9999.0 -9999.0 -9999.0 -9999.0 -9999.0 -9999.0 -9999.0 -9999.0 -9999.0 -9999.0 -9999.0 -9999.0 -9999.0 -9999.0 -9999.0 -9999.0 -9999.0 -9999.0 -9999.0 -9999.0 -9999.0 -9999.0 -9999.0 -9999.0 -9999.0 -9999.0 -9999.0 -9999.0 -9999.0 -9999.0 -9999.0 -9999.0 -9999.0 -9999.0 -9999.0 -9999.0 -9999.0 -9999.0 -9999.0 -9999.0 -9999.0 -9999.0 -9999.0 -9999.0 -9999.0 -9999.0 -9999.0 -9999.0 -9999.0 -9999.0 -9999.0 -9999.0 -9999.0 -9999.0
-9999.0 -9999.0 -9999.0 -9999.0 -9999.0 -9999.0 -9999.0 -9999.0 -9999.0 -9999.0 -9999.0 -9999.0 -9999.0 -9999.0 -9999.0 -9999.0 -9999.0 -9999.0 -9999.0 -9999.0 -9999.0 -9999.0 -9999.0 -9999.0 -9999.0 -9999.0 -9999.0 -9999.0 -9999.0 -9999.0 -9999.0 -9999.0 -9999.0 -9999.0 -9999.0 -9999.0 -9999.0 -9999.0 -9999.0 -9999.0 -9999.0 -9999.0 -9999.0 -9999.0 -9999.0 -9999.0 -9999.0 -9999.0 -9999.0 -9999.0 -9999.0 -9999.0 -9999.0 -9999.0 -9999.0 -9999.0 -9999.0 -9999.0 -9999.0 -9999.0 -9999.0 -9999.0 -9999.0 -9999.0 -9999.0 -9999.0 -9999.0 -9999.0 -9999.0 -9999.0 -9999.0 -9999.0 -9999.0 -9999.0 -9999.0 -9999.0 -9999.0 -9999.0 -9999.0 -9999.0 -9999.0 -9999.0 -9999.0 -9999.0 -9999.0 -9999.0 -9999.0 -9999.0 -9999.0 -9999.0 -9999.0 -9999.0 -9999.0 -9999.0 -9999.0 -9999.0 -9999.0 -9999.0 -9999.0 -9999.0 -9999.0 -9999.0 -9999.0 -9999.0 815.0 812.0 812.0 813.0 804.0 806.0 803.0 797.0 786.0 786.0 787.0 780.0 783.0 789.0 794.0 794.0 795.0 799.0 798.0 802.0 807.0 813.0 818.0 832.0 845.0 841.0 850.0 854.0 851.0 824.0 808.0 796.0 790.0 768.0 766.0 762.0 741.0 743.0 752.0 757.0 741.0 740.0 741.0 718.0 717.0 719.0 716.0 700.0 696.0 696.0 681.0 675.0 671.0 666.0 654.0 648.0 643.0 635.0 634.0 635.0 634.0 626.0 624.0 619.0 613.0 611.0 618.0 623.0 631.0 635.0 640.0 646.0 650.0 654.0 658.0 670.0 677.0 683.0 688.0 696.0 700.0 704.0 714.0 717.0 719.0 722.0 734.0 737.0 739.0 749.0 753.0 755.0 757.0 767.0 769.0 769.0 772.0 781.0 783.0 783.0 803.0 806.0 810.0 815.0 837.0 842.0 848.0 878.0 889.0 899.0 908.0 946.0 959.0 967.0 1011.0 1028.0 1040.0 1049.0 1075.0 1084.0 1093.0 1101.0 1103.0 1104.0 1104.0 1101.0 1100.0 1099.0 1098.0 1094.0 1094.0 1093.0 1089.0 1088.0 1088.0 1088.0 1083.0 1083.0 1082.0 1073.0 1070.0 1070.0 1067.0 1058.0 1053.0 1050.0 1044.0 1042.0 1040.0 1039.0 1030.0 1030.0 1031.0 1028.0 1009.0 999.0 989.0 992.0 999.0 998.0 990.0 968.0 965.0 966.0 962.0 962.0 964.0 966.0 954.0 955.0 955.0 949.0 953.0 960.0 966.0 962.0 962.0 962.0 954.0 954.0 953.0 955.0 947.0 949.0 954.0 961.0 968.0 974.0 974.0 974.0 974.0 973.0 971.0 964.0 966.0 968.0 964.0 966.0 972.0 984.0 986.0 988.0 987.0 992.0 997.0 1003.0 1009.0 1015.0 1023.0 1034.0 1046.0 1049.0 1060.0 1073.0 1099.0 1111.0 1123.0 1134.0 1161.0 1176.0 1197.0 1230.0 1243.0 1255.0 1267.0 1292.0 1315.0 1339.0 1369.0 1382.0 1394.0 1408.0 1432.0 1442.0 1442.0 1444.0 1452.0 1459.0 1467.0 1461.0 1468.0 1477.0 1483.0 1486.0 1488.0 -9999.0 -9999.0 -9999.0 -9999.0 -9999.0 -9999.0 -9999.0 -9999.0 -9999.0 -9999.0 -9999.0 -9999.0 -9999.0 -9999.0 -9999.0 -9999.0 -9999.0 -9999.0 -9999.0 -9999.0 -9999.0 -9999.0 -9999.0 -9999.0 -9999.0 -9999.0 -9999.0 -9999.0 -9999.0 -9999.0 -9999.0 -9999.0 -9999.0 -9999.0 -9999.0 -9999.0 -9999.0 -9999.0 -9999.0 -9999.0 -9999.0 -9999.0 -9999.0 -9999.0 -9999.0 -9999.0 -9999.0 -9999.0 -9999.0 -9999.0 -9999.0 -9999.0 -9999.0 -9999.0 -9999.0 -9999.0 -9999.0 -9999.0 -9999.0 -9999.0 -9999.0 -9999.0 -9999.0 -9999.0 -9999.0 -9999.0
-9999.0 -9999.0 -9999.0 -9999.0 -9999.0 -9999.0 -9999.0 -9999.0 -9999.0 -9999.0 -9999.0 -9999.0 -9999.0 -9999.0 -9999.0 -9999.0 -9999.0 -9999.0 -9999.0 -9999.0 -9999.0 -9999.0 -9999.0 -9999.0 -9999.0 -9999.0 -9999.0 -9999.0 -9999.0 -9999.0 -9999.0 -9999.0 -9999.0 -9999.0 -9999.0 -9999.0 -9999.0 -9999.0 -9999.0 -9999.0 -9999.0 -9999.0 -9999.0 -9999.0 -9999.0 -9999.0 -9999.0 -9999.0 -9999.0 -9999.0 -9999.0 -9999.0 -9999.0 -9999.0 -9999.0 -9999.0 -9999.0 -9999.0 -9999.0 -9999.0 -9999.0 -9999.0 -9999.0 -9999.0 -9999.0 -9999.0 -9999.0 -9999.0 -9999.0 -9999.0 -9999.0 -9999.0 -9999.0 -9999.0 -9999.0 -9999.0 -9999.0 -9999.0 -9999.0 -9999.0 -9999.0 -9999.0 -9999.0 -9999.0 -9999.0 -9999.0 -9999.0 -9999.0 -9999.0 -9999.0 -9999.0 -9999.0 -9999.0 -9999.0 -9999.0 -9999.0 -9999.0 -9999.0 -9999.0 -9999.0 -9999.0 -9999.0 -9999.0 -9999.0 818.0 802.0 798.0 800.0 791.0 793.0 792.0 788.0 777.0 776.0 778.0 771.0 776.0 784.0 791.0 786.0 788.0 792.0 789.0 789.0 793.0 798.0 803.0 817.0 830.0 841.0 841.0 843.0 837.0 818.0 801.0 780.0 772.0 760.0 758.0 753.0 729.0 728.0 738.0 742.0 721.0 718.0 718.0 699.0 700.0 700.0 703.0 689.0 689.0 686.0 670.0 667.0 664.0 660.0 651.0 645.0 639.0 635.0 629.0 628.0 628.0 620.0 617.0 613.0 610.0 613.5 616.0 623.0 630.0 635.0 640.0 646.0 653.0 657.0 663.0 675.0 683.0 689.0 694.0 703.0 706.0 709.0 714.0 727.0 729.0 731.0 742.0 745.0 747.0 747.0 756.0 760.0 763.0 775.0 776.0 777.0 779.0 794.0 796.0 799.0 817.0 820.0 824.0 831.0 853.0 859.0 867.0 899.0 908.0 917.0 930.0 970.0 970.0 979.0 989.0 1040.0 1052.0 1062.0 1090.0 1096.0 1100.0 1103.0 1101.0 1100.0 1101.0 1097.0 1096.0 1095.0 1095.0 1090.0 1090.0 1090.0 1084.0 1084.0 1083.0 1083.0 1076.0 1075.0 1075.0 1069.0 1068.0 1065.0 1062.0 1051.0 1047.0 1045.0 1044.0 1035.0 1031.0 1030.0 1022.0 1022.0 1021.0 1018.0 1001.0 989.0 980.0 988.0 988.0 991.0 985.0 965.0 959.0 956.0 952.0 952.0 952.0 953.0 943.0 944.0 946.0 949.0 948.0 952.0 958.0 954.0 953.0 952.0 954.0 947.0 946.0 946.0 941.0 944.0 950.0 955.0 960.0 965.0 971.0 967.0 967.0 965.0 963.0 958.0 960.0 961.0 959.0 962.0 968.0 978.0 980.0 982.0 987.0 992.0 992.0 998.0 1004.0 1009.0 1016.0 1026.0 1038.0 1055.0 1070.0 1085.0 1111.0 1123.0 1135.0 1149.0 1174.0 1189.0 1211.0 1239.0 1253.0 1265.0 1277.0 1309.0 1335.0 1355.0 1363.0 1376.0 1392.0 1406.0 1421.0 1430.0 1437.0 1444.0 1433.0 1443.0 1453.0 1449.0 1459.0 1469.0 1477.0 1472.0 1480.0 1484.0 1480.0 -9999.0 -9999.0 -9999.0 -9999.0 -9999.0 -9999.0 -9999.0 -9999.0 -9999.0 -9999.0 -9999.0 -9999.0 -9999.0 -9999.0 -9999.0 -9999.0 -9999.0 -9999.0 -9999.0 -9999.0 -9999.0 -9999.0 -9999.0 -9999.0 -9999.0 -9999.0 -9999.0 -9999.0 -9999.0 -9999.0 -9999.0 -9999.0 -9999.0 -9999.0 -9999.0 -9999.0 -9999.0 -9999.0 -9999.0 -9999.0 -9999.0 -9999.0 -9999.0 -9999.0 -9999.0 -9999.0 -9999.0 -9999.0 -9999.0 -9999.0 -9999.0 -9999.0 -9999.0 -9999.0 -9999.0 -9999.0 -9999.0 -9999.0 -9999.0 -9999.0 -9999.0 -9999.0 -9999.0 -9999.0
-9999.0 -9999.0 -9999.0 -9999.0 -9999.0 -9999.0 -9999.0 -9999.0 -9999.0 -9999.0 -9999.0 -9999.0 -9999.0 -9999.0 -9999.0 -9999.0 -9999.0 -9999.0 -9999.0 -9999.0 -9999.0 -9999.0 -9999.0 -9999.0 -9999.0 -9999.0 -9999.0 -9999.0 -9999.0 -9999.0 -9999.0 -9999.0 -9999.0 -9999.0 -9999.0 -9999.0 -9999.0 -9999.0 -9999.0 -9999.0 -9999.0 -9999.0 -9999.0 -9999.0 -9999.0 -9999.0 -9999.0 -9999.0 -9999.0 -9999.0 -9999.0 -9999.0 -9999.0 -9999.0 -9999.0 -9999.0 -9999.0 -9999.0 -9999.0 -9999.0 -9999.0 -9999.0 -9999.0 -9999.0 -9999.0 -9999.0 -9999.0 -9999.0 -9999.0 -9999.0 -9999.0 -9999.0 -9999.0 -9999.0 -9999.0 -9999.0 -9999.0 -9999.0 -9999.0 -9999.0 -9999.0 -9999.0 -9999.0 -9999.0 -9999.0 -9999.0 -9999.0 -9999.0 -9999.0 -9999.0 -9999.0 -9999.0 -9999.0 -9999.0 -9999.0 -9999.0 -9999.0 -9999.0 -9999.0 -9999.0 -9999.0 -9999.0 -9999.0 809.0 806.0 791.0 785.0 787.0 777.0 781.0 782.0 780.0 767.0 767.0 768.0 766.0 766.0 771.0 778.0 776.0 778.0 779.0 784.0 779.0 783.0 792.0 802.0 817.0 828.0 836.0 834.0 834.0 828.0 812.0 791.0 769.0 762.0 746.0 747.0 742.0 733.0 722.0 718.0 723.0 706.0 703.0 700.0 684.0 686.0 686.0 687.0 674.0 676.0 675.0 670.0 660.0 659.0 656.0 648.0 642.0 635.0 631.0 623.0 623.0 621.0 615.0 614.0 611.0 609.0 614.0 620.0 626.0 633.0 637.0 643.0 649.0 656.0 661.0 668.0 675.0 692.0 698.0 701.0 713.0 716.0 719.0 719.0 737.0 740.0 741.0 749.0 750.0 753.0 754.0 765.0 769.0 773.0 786.0 787.0 788.0 790.0 809.0 812.0 816.0 829.0 832.0 837.0 846.0 872.0 872.0 881.0 891.0 919.0 931.0 944.0 980.0 992.0 1003.0 1024.0 1057.0 1068.0 1082.0 1095.0 1100.0 1102.0 1102.0 1095.0 1094.0 1096.0 1090.0 1091.0 1091.0 1091.0 1086.0 1085.0 1085.0 1078.0 1078.0 1077.0 1076.0 1067.0 1066.0 1068.0 1069.0 1061.0 1059.0 1055.0 1045.0 1041.0 1039.0 1037.0 1024.0 1022.0 1021.0 1014.0 1014.0 1014.0 1012.0 1002.0 994.0 981.0 970.0 980.0 979.0 972.0 956.0 951.0 950.0 952.0 946.0 944.0 944.0 937.0 938.0 940.0 944.0 945.0 948.0 951.0 946.0 947.0 947.0 946.0 942.0 942.0 940.0 939.0 944.0 949.0 955.0 957.0 961.0 965.0 958.0 958.0 958.0 958.0 954.0 956.0 957.0 959.0 960.0 960.0 965.0 970.0 975.0 979.0 987.0 993.0 998.0 1004.0 1011.0 1020.0 1031.0 1043.0 1065.0 1081.0 1097.0 1118.0 1131.0 1147.0 1160.0 1184.0 1201.0 1221.0 1229.0 1244.0 1259.0 1274.0 1299.0 1326.0 1347.0 1363.0 1373.0 1390.0 1409.0 1411.0 1420.0 1423.0 1427.0 1418.0 1426.0 1436.0 1435.0 1448.0 1456.0 1463.0 1457.0 1457.0 1467.0 1462.0 1468.0 -9999.0 -9999.0 -9999.0 -9999.0 -9999.0 -9999.0 -9999.0 -9999.0 -9999.0 -9999.0 -9999.0 -9999.0 -9999.0 -9999.0 -9999.0 -9999.0 -9999.0 -9999.0 -9999.0 -9999.0 -9999.0 -9999.0 -9999.0 -9999.0 -9999.0 -9999.0 -9999.0 -9999.0 -9999.0 -9999.0 -9999.0 -9999.0 -9999.0 -9999.0 -9999.0 -9999.0 -9999.0 -9999.0 -9999.0 -9999.0 -9999.0 -9999.0 -9999.0 -9999.0 -9999.0 -9999.0 -9999.0 -9999.0 -9999.0 -9999.0 -9999.0 -9999.0 -9999.0 -9999.0 -9999.0 -9999.0 -9999.0 -9999.0 -9999.0 -9999.0 -9999.0 -9999.0 -9999.0
-9999.0 -9999.0 -9999.0 -9999.0 -9999.0 -9999.0 -9999.0 -9999.0 -9999.0 -9999.0 -9999.0 -9999.0 -9999.0 -9999.0 -9999.0 -9999.0 -9999.0 -9999.0 -9999.0 -9999.0 -9999.0 -9999.0 -9999.0 -9999.0 -9999.0 -9999.0 -9999.0 -9999.0 -9999.0 -9999.0 -9999.0 -9999.0 -9999.0 -9999.0 -9999.0 -9999.0 -9999.0 -9999.0 -9999.0 -9999.0 -9999.0 -9999.0 -9999.0 -9999.0 -9999.0 -9999.0 -9999.0 -9999.0 -9999.0 -9999.0 -9999.0 -9999.0 -9999.0 -9999.0 -9999.0 -9999.0 -9999.0 -9999.0 -9999.0 -9999.0 -9999.0 -9999.0 -9999.0 -9999.0 -9999.0 -9999.0 -9999.0 -9999.0 -9999.0 -9999.0 -9999.0 -9999.0 -9999.0 -9999.0 -9999.0 -9999.0 -9999.0 -9999.0 -9999.0 -9999.0 -9999.0 -9999.0 -9999.0 -9999.0 -9999.0 -9999.0 -9999.0 -9999.0 -9999.0 -9999.0 -9999.0 -9999.0 -9999.0 -9999.0 -9999.0 -9999.0 -9999.0 -9999.0 -9999.0 -9999.0 -9999.0 -9999.0 802.0 802.0 798.0 778.0 772.0 773.0 768.0 774.0 774.0 775.0 767.0 760.0 760.0 763.0 761.0 766.0 772.0 769.0 771.0 771.0 774.0 770.0 776.0 787.0 802.0 816.0 825.0 831.0 829.0 827.0 822.0 814.0 805.0 785.0 765.0 750.0 737.0 734.0 724.0 716.0 707.0 709.0 694.0 689.0 685.0 684.0 670.0 671.0 671.0 662.0 665.0 665.0 663.0 656.0 656.0 654.0 648.0 644.0 638.0 631.0 621.0 617.0 615.0 609.0 607.0 607.0 608.0 622.0 626.0 629.0 633.0 641.0 646.0 651.0 659.0 666.0 675.0 675.0 693.0 702.0 707.0 722.0 726.0 732.0 734.0 750.0 751.0 750.0 758.0 759.0 761.0 762.0 776.0 780.0 783.0 800.0 800.0 801.0 805.0 824.0 826.0 826.0 829.0 843.0 846.0 853.0 879.0 890.0 900.0 908.0 944.0 957.0 968.0 998.0 1011.0 1025.0 1044.0 1066.0 1078.0 1089.0 1094.0 1098.0 1099.0 1100.0 1089.0 1087.0 1086.0 1083.0 1084.0 1086.0 1086.0 1079.0 1079.0 1078.0 1078.0 1071.0 1070.0 1069.0 1060.0 1060.0 1061.0 1062.0 1053.0 1051.0 1047.0 1039.0 1035.0 1035.0 1032.0 1020.0 1016.0 1014.0 1007.0 1007.0 1007.0 1006.0 995.0 988.0 975.0 970.0 966.0 966.0 962.0 947.0 945.0 945.0 946.0 941.0 940.0 938.0 935.0 935.0 936.0 938.0 940.0 943.0 945.0 942.0 943.0 942.0 941.0 938.0 938.0 938.0 938.0 943.0 948.0 952.0 953.0 956.0 958.0 958.0 951.0 951.0 952.0 950.0 951.0 953.0 955.0 955.0 958.0 963.0 966.0 973.0 979.0 987.0 992.0 996.0 1003.0 1014.0 1024.0 1037.0 1051.0 1075.0 1091.0 1106.0 1114.0 1123.0 1137.0 1154.0 1176.0 1191.0 1209.0 1229.0 1248.0 1264.0 1281.0 1305.0 1328.0 1348.0 1362.0 1365.0 1379.0 1396.0 1393.0 1401.0 1404.0 1408.0 1399.0 1409.0 1409.0 1402.0 1421.0 1434.0 1441.0 1434.0 1444.0 1453.0 1462.0 1458.0 1467.0 1469.0 -9999.0 -9999.0 -9999.0 -9999.0 -9999.0 -9999.0 -9999.0 -9999.0 -9999.0 -9999.0 -9999.0 -9999.0 -9999.0 -9999.0 -9999.0 -9999.0 -9999.0 -9999.0 -9999.0 -9999.0 -9999.0 -9999.0 -9999.0 -9999.0 -9999.0 -9999.0 -9999.0 -9999.0 -9999.0 -9999.0 -9999.0 -9999.0 -9999.0 -9999.0 -9999.0 -9999.0 -9999.0 -9999.0 -9999.0 -9999.0 -9999.0 -9999.0 -9999.0 -9999.0 -9999.0 -9999.0 -9999.0 -9999.0 -9999.0 -9999.0 -9999.0 -9999.0 -9999.0 -9999.0 -9999.0 -9999.0 -9999.0 -9999.0 -9999.0 -9999.0 -9999.0
-9999.0 -9999.0 -9999.0 -9999.0 -9999.0 -9999.0 -9999.0 -9999.0 -9999.0 -9999.0 -9999.0 -9999.0 -9999.0 -9999.0 -9999.0 -9999.0 -9999.0 -9999.0 -9999.0 -9999.0 -9999.0 -9999.0 -9999.0 -9999.0 -9999.0 -9999.0 -9999.0 -9999.0 -9999.0 -9999.0 -9999.0 -9999.0 -9999.0 -9999.0 -9999.0 -9999.0 -9999.0 -9999.0 -9999.0 -9999.0 -9999.0 -9999.0 -9999.0 -9999.0 -9999.0 -9999.0 -9999.0 -9999.0 -9999.0 -9999.0 -9999.0 -9999.0 -9999.0 -9999.0 -9999.0 -9999.0 -9999.0 -9999.0 -9999.0 -9999.0 -9999.0 -9999.0 -9999.0 -9999.0 -9999.0 -9999.0 -9999.0 -9999.0 -9999.0 -9999.0 -9999.0 -9999.0 -9999.0 -9999.0 -9999.0 -9999.0 -9999.0 -9999.0 -9999.0 -9999.0 -9999.0 -9999.0 -9999.0 -9999.0 -9999.0 -9999.0 -9999.0 -9999.0 -9999.0 -9999.0 -9999.0 -9999.0 -9999.0 -9999.0 -9999.0 -9999.0 -9999.0 -9999.0 -9999.0 -9999.0 -9999.0 -9999.0 796.0 796.0 792.0 773.0 767.0 763.0 763.0 760.0 768.0 770.0 760.0 755.0 755.0 758.0 756.0 761.0 765.0 762.0 762.0 763.0 765.0 762.0 772.0 786.0 784.0 798.0 811.0 821.0 822.0 824.0 822.0 808.0 797.0 776.0 762.0 743.0 727.0 722.0 724.0 707.0 696.0 695.0 681.0 677.0 674.0 670.0 660.0 660.0 660.0 652.0 654.0 656.0 658.0 652.0 651.0 650.0 642.0 638.0 633.0 627.0 613.0 609.0 608.0 609.0 600.0 604.0 612.0 625.0 630.0 634.0 637.0 643.0 646.0 650.0 659.0 665.0 673.0 683.0 701.0 710.0 716.0 733.0 737.0 742.0 746.0 757.0 759.0 758.0 764.0 767.0 770.0 772.0 789.0 792.0 792.0 795.0 814.0 816.0 816.0 836.0 840.0 841.0 843.0 862.0 864.0 869.0 896.0 909.0 920.0 931.0 969.0 977.0 987.0 1015.0 1027.0 1040.0 1054.0 1066.0 1074.0 1083.0 1090.0 1090.0 1092.0 1092.0 1082.0 1082.0 1082.0 1083.0 1080.0 1080.0 1080.0 1073.0 1072.0 1071.0 1071.0 1065.0 1064.0 1062.0 1055.0 1054.0 1054.0 1054.0 1047.0 1046.0 1044.0 1036.0 1031.0 1027.0 1024.0 1013.0 1009.0 1006.0 1007.0 1000.0 1000.0 999.0 988.0 981.0 967.0 960.0 952.0 953.0 951.0 939.0 939.0 939.0 940.0 936.0 936.0 934.0 931.0 933.0 935.0 937.0 938.0 941.0 942.0 939.0 939.0 938.0 938.0 935.0 935.0 936.0 938.0 941.0 945.0 945.0 943.0 946.0 949.0 950.0 945.0 946.0 948.0 946.0 948.0 950.0 952.0 952.0 955.0 960.0 966.0 973.0 980.0 986.0 990.0 996.0 1005.0 1018.0 1018.0 1029.0 1044.0 1066.0 1082.0 1100.0 1114.0 1127.0 1142.0 1159.0 1178.0 1194.0 1214.0 1233.0 1248.0 1265.0 1286.0 1304.0 1322.0 1341.0 1355.0 1353.0 1364.0 1364.0 1360.0 1369.0 1377.0 1382.0 1366.0 1378.0 1389.0 1402.0 1402.0 1418.0 1426.0 1417.0 1426.0 1440.0 1449.0 1451.0 1460.0 1469.0 1472.0 1472.0 -9999.0 -9999.0 1466.0 1463.0 -9999.0 1457.0 -9999.0 -9999.0 -9999.0 -9999.0 -9999.0 -9999.0 -9999.0 -9999.0 -9999.0 -9999.0 -9999.0 -9999.0 -9999.0 -9999.0 -9999.0 -9999.0 -9999.0 -9999.0 -9999.0 -9999.0 -9999.0 -9999.0 -9999.0 -9999.0 -9999.0 -9999.0 -9999.0 -9999.0 -9999.0 -9999.0 -9999.0 -9999.0 -9999.0 -9999.0 -9999.0 -9999.0 -9999.0 -9999.0 -9999.0 -9999.0 -9999.0 -9999.0 -9999.0 -9999.0 -9999.0 -9999.0 -9999.0 -9999.0 -9999.0 -9999.0 -9999.0 -9999.0 -9999.0
-9999.0 -9999.0 -9999.0 -9999.0 -9999.0 -9999.0 -9999.0 -9999.0 -9999.0 -9999.0 -9999.0 -9999.0 -9999.0 -9999.0 -9999.0 -9999.0 -9999.0 -9999.0 -9999.0 -9999.0 -9999.0 -9999.0 -9999.0 -9999.0 -9999.0 -9999.0 -9999.0 -9999.0 -9999.0 -9999.0 -9999.0 -9999.0 -9999.0 -9999.0 -9999.0 -9999.0 -9999.0 -9999.0 -9999.0 -9999.0 -9999.0 -9999.0 -9999.0 -9999.0 -9999.0 -9999.0 -9999.0 -9999.0 -9999.0 -9999.0 -9999.0 -9999.0 -9999.0 -9999.0 -9999.0 -9999.0 -9999.0 -9999.0 -9999.0 -9999.0 -9999.0 -9999.0 -9999.0 -9999.0 -9999.0 -9999.0 -9999.0 -9999.0 -9999.0 -9999.0 -9999.0 -9999.0 -9999.0 -9999.0 -9999.0 -9999.0 -9999.0 -9999.0 -9999.0 -9999.0 -9999.0 -9999.0 -9999.0 -9999.0 -9999.0 -9999.0 -9999.0 -9999.0 -9999.0 -9999.0 -9999.0 -9999.0 -9999.0 -9999.0 -9999.0 -9999.0 -9999.0 -9999.0 -9999.0 -9999.0 -9999.0 807.0 795.0 786.0 779.0 763.0 757.0 755.0 755.0 755.0 762.0 764.0 754.0 750.0 751.0 753.0 750.0 752.0 758.0 753.0 753.0 752.0 753.0 746.0 758.0 770.0 784.0 794.0 806.0 816.0 819.0 821.0 817.0 808.0 782.0 767.0 757.0 732.0 717.0 711.0 715.0 697.0 686.0 686.0 671.0 670.0 668.0 665.0 654.0 652.0 652.0 645.0 647.0 650.0 652.0 647.0 646.0 645.0 642.0 631.0 626.0 619.0 600.0 601.0 603.0 603.0 599.0 605.0 605.0 618.0 627.0 633.0 638.0 648.0 652.0 655.0 667.0 676.0 684.0 691.0 710.0 719.0 727.0 737.0 740.0 745.0 750.0 754.0 760.0 761.0 761.0 766.0 771.0 776.0 798.0 804.0 808.0 811.0 828.0 830.0 833.0 853.0 857.0 861.0 863.0 878.0 882.0 887.0 911.0 926.0 939.0 955.0 984.0 984.0 992.0 1003.0 1029.0 1041.0 1053.0 1075.0 1078.0 1083.0 1087.0 1084.0 1085.0 1083.0 1078.0 1078.0 1078.0 1079.0 1076.0 1076.0 1075.0 1068.0 1066.0 1065.0 1065.0 1060.0 1060.0 1059.0 1052.0 1050.0 1048.0 1047.0 1040.0 1040.0 1038.0 1036.0 1023.0 1018.0 1016.0 1005.0 1002.0 999.0 1000.0 994.0 993.0 993.0 980.0 980.0 972.0 960.0 942.0 940.0 941.0 933.0 931.0 932.0 935.0 931.0 930.0 930.0 928.0 931.0 933.0 935.0 935.0 937.0 938.0 939.0 934.0 935.0 935.0 932.0 932.0 931.0 933.0 933.0 937.0 940.0 937.0 939.0 942.0 944.0 941.0 943.0 944.0 943.0 945.0 948.0 950.0 950.0 952.0 958.0 966.0 967.0 974.0 980.0 983.0 989.0 997.0 1008.0 1021.0 1035.0 1052.0 1070.0 1088.0 1104.0 1116.0 1129.0 1144.0 1160.0 1172.0 1193.0 1215.0 1233.0 1246.0 1264.0 1286.0 1283.0 1299.0 1311.0 1327.0 1325.0 1339.0 1349.0 1360.0 1349.0 1354.0 1358.0 1347.0 1358.0 1369.0 1382.0 1381.0 1396.0 1408.0 1394.0 1408.0 1428.0 1441.0 1442.0 1442.0 1451.0 1454.0 1460.0 1463.0 1464.0 1449.0 1449.0 1452.0 1445.0 1452.0 1461.0 1465.0 1468.0 1471.0 -9999.0 -9999.0 -9999.0 -9999.0 -9999.0 -9999.0 -9999.0 -9999.0 -9999.0 -9999.0 -9999.0 -9999.0 -9999.0 -9999.0 -9999.0 -9999.0 -9999.0 -9999.0 -9999.0 -9999.0 -9999.0 -9999.0 -9999.0 -9999.0 -9999.0 -9999.0 -9999.0 -9999.0 -9999.0 -9999.0 -9999.0 -9999.0 -9999.0 -9999.0 -9999.0 -9999.0 -9999.0 -9999.0 -9999.0 -9999.0 -9999.0 -9999.0 -9999.0 -9999.0 -9999.0 -9999.0 -9999.0 -9999.0
-9999.0 -9999.0 -9999.0 -9999.0 -9999.0 -9999.0 -9999.0 -9999.0 -9999.0 -9999.0 -9999.0 -9999.0 -9999.0 -9999.0 -9999.0 -9999.0 -9999.0 -9999.0 -9999.0 -9999.0 -9999.0 -9999.0 -9999.0 -9999.0 -9999.0 -9999.0 -9999.0 -9999.0 -9999.0 -9999.0 -9999.0 -9999.0 -9999.0 -9999.0 -9999.0 -9999.0 -9999.0 -9999.0 -9999.0 -9999.0 -9999.0 -9999.0 -9999.0 -9999.0 -9999.0 -9999.0 -9999.0 -9999.0 -9999.0 -9999.0 -9999.0 -9999.0 -9999.0 -9999.0 -9999.0 -9999.0 -9999.0 -9999.0 -9999.0 -9999.0 -9999.0 -9999.0 -9999.0 -9999.0 -9999.0 -9999.0 -9999.0 -9999.0 -9999.0 -9999.0 -9999.0 -9999.0 -9999.0 -9999.0 -9999.0 -9999.0 -9999.0 -9999.0 -9999.0 -9999.0 -9999.0 -9999.0 -9999.0 -9999.0 -9999.0 -9999.0 -9999.0 -9999.0 -9999.0 -9999.0 -9999.0 -9999.0 -9999.0 -9999.0 -9999.0 -9999.0 -9999.0 -9999.0 -9999.0 822.0 816.0 803.0 788.0 777.0 769.0 756.0 750.0 745.0 749.0 750.0 756.0 758.0 747.0 747.0 745.0 747.0 744.0 743.0 743.0 749.0 743.0 741.0 742.0 744.0 755.0 767.0 781.0 792.0 802.0 812.0 812.0 814.0 810.0 799.0 770.0 760.0 748.0 739.0 722.0 706.0 700.0 688.0 686.0 678.0 665.0 661.0 659.0 657.0 647.0 646.0 645.0 645.0 640.0 643.0 645.0 638.0 640.0 638.0 635.0 621.0 621.0 611.0 597.0 595.0 598.0 599.0 598.0 601.0 608.0 620.0 628.0 634.0 642.0 652.0 657.0 662.0 676.0 685.0 692.0 700.0 715.0 724.0 732.0 732.0 731.0 737.0 740.0 732.0 744.0 754.0 761.0 765.0 773.0 783.0 808.0 814.0 818.0 823.0 840.0 845.0 849.0 867.0 871.0 875.0 877.0 887.0 887.0 892.0 900.0 923.0 937.0 952.0 980.0 992.0 1002.0 1016.0 1036.0 1050.0 1065.0 1073.0 1077.0 1079.0 1082.0 1078.0 1079.0 1079.0 1074.0 1074.0 1074.0 1074.0 1072.0 1072.0 1071.0 1065.0 1063.0 1061.0 1060.0 1056.0 1055.0 1054.0 1052.0 1044.0 1043.0 1041.0 1030.0 1030.0 1030.0 1027.0 1014.0 1010.0 1007.0 997.0 997.0 995.0 993.0 985.0 987.0 985.0 971.0 967.0 958.0 950.0 934.0 929.0 931.0 923.0 924.0 928.0 930.0 926.0 926.0 926.0 928.0 930.0 932.0 933.0 930.0 930.0 932.0 933.0 930.0 930.0 932.0 929.0 929.0 928.0 929.0 929.0 931.0 934.0 932.0 935.0 937.0 939.0 937.0 939.0 941.0 943.0 942.0 942.0 945.0 946.0 949.0 953.0 960.0 966.0 973.0 979.0 983.0 990.0 999.0 1011.0 1024.0 1041.0 1056.0 1071.0 1090.0 1105.0 1117.0 1127.0 1140.0 1155.0 1147.0 1164.0 1187.0 1210.0 1222.0 1240.0 1259.0 1283.0 1291.0 1301.0 1313.0 1310.0 1322.0 1334.0 1344.0 1331.0 1335.0 1341.0 1333.0 1342.0 1353.0 1364.0 1361.0 1361.0 1374.0 1366.0 1378.0 1394.0 1416.0 1422.0 1433.0 1442.0 1443.0 1449.0 1451.0 1450.0 1437.0 1436.0 1440.0 1445.0 1442.0 1452.0 1460.0 1455.0 1457.0 1459.0 1459.0 1446.0 1444.0 1438.0 1424.0 1423.0 1420.0 1417.0 1410.0 -9999.0 -9999.0 -9999.0 -9999.0 -9999.0 -9999.0 -9999.0 -9999.0 -9999.0 -9999.0 -9999.0 -9999.0 -9999.0 -9999.0 -9999.0 -9999.0 -9999.0 -9999.0 -9999.0 -9999.0 -9999.0 -9999.0 -9999.0 -9999.0 -9999.0 -9999.0 -9999.0 -9999.0 -9999.0 -9999.0 -9999.0 -9999.0 -9999.0 -9999.0 -9999.0 -9999.0 -9999.0 -9999.0
-9999.0 -9999.0 -9999.0 -9999.0 -9999.0 -9999.0 -9999.0 -9999.0 -9999.0 -9999.0 -9999.0 -9999.0 -9999.0 -9999.0 -9999.0 -9999.0 -9999.0 -9999.0 -9999.0 -9999.0 -9999.0 -9999.0 -9999.0 -9999.0 -9999.0 -9999.0 -9999.0 -9999.0 -9999.0 -9999.0 -9999.0 -9999.0 -9999.0 -9999.0 -9999.0 -9999.0 -9999.0 -9999.0 -9999.0 -9999.0 -9999.0 -9999.0 -9999.0 -9999.0 -9999.0 -9999.0 -9999.0 -9999.0 -9999.0 -9999.0 -9999.0 -9999.0 -9999.0 -9999.0 -9999.0 -9999.0 -9999.0 -9999.0 -9999.0 -9999.0 -9999.0 -9999.0 -9999.0 -9999.0 -9999.0 -9999.0 -9999.0 -9999.0 -9999.0 -9999.0 -9999.0 -9999.0 -9999.0 -9999.0 -9999.0 -9999.0 -9999.0 -9999.0 -9999.0 -9999.0 -9999.0 -9999.0 -9999.0 -9999.0 -9999.0 -9999.0 -9999.0 -9999.0 -9999.0 -9999.0 -9999.0 -9999.0 -9999.0 -9999.0 -9999.0 -9999.0 -9999.0 -9999.0 -9999.0 821.0 809.0 798.0 782.0 771.0 763.0 752.0 746.0 746.0 739.0 734.0 743.0 749.0 751.0 741.0 739.0 743.0 737.0 737.0 736.0 740.0 732.0 731.0 734.0 742.0 752.0 763.0 776.0 789.0 799.0 806.0 796.0 801.0 804.0 800.0 775.0 763.0 754.0 734.0 714.0 699.0 688.0 674.0 676.0 672.0 665.0 653.0 651.0 650.0 641.0 641.0 640.0 640.0 633.0 633.0 635.0 629.0 632.0 634.0 632.0 619.0 607.0 597.0 594.0 595.0 596.0 597.0 600.0 604.0 611.0 623.0 629.0 636.0 645.0 655.0 661.0 668.0 668.0 683.0 690.0 697.0 707.0 714.0 720.0 725.0 718.0 726.0 727.0 722.0 732.0 741.0 755.0 763.0 774.0 791.0 812.0 819.0 827.0 834.0 850.0 857.0 857.0 864.0 873.0 877.0 881.0 887.0 892.0 899.0 909.0 929.0 944.0 961.0 982.0 996.0 1010.0 1024.0 1038.0 1052.0 1065.0 1066.0 1071.0 1073.0 1076.0 1068.0 1071.0 1074.0 1070.0 1070.0 1070.0 1071.0 1068.0 1068.0 1067.0 1065.0 1058.0 1057.0 1056.0 1052.0 1051.0 1049.0 1047.0 1039.0 1036.0 1033.0 1020.0 1019.0 1019.0 1020.0 1009.0 1005.0 1001.0 992.0 991.0 988.0 984.0 974.0 974.0 972.0 955.0 952.0 946.0 940.0 925.0 920.0 921.0 923.0 918.0 923.0 926.0 920.0 921.0 921.0 923.0 925.0 927.0 929.0 926.0 927.0 928.0 929.0 926.0 927.0 929.0 927.0 927.0 926.0 927.0 927.0 927.0 930.0 932.0 931.0 931.0 934.0 934.0 935.0 937.0 938.0 939.0 940.0 943.0 945.0 949.0 953.0 959.0 965.0 971.0 976.0 986.0 994.0 1003.0 1013.0 1027.0 1042.0 1055.0 1051.0 1067.0 1085.0 1102.0 1107.0 1120.0 1133.0 1147.0 1155.0 1178.0 1201.0 1210.0 1230.0 1251.0 1276.0 1280.0 1291.0 1301.0 1294.0 1304.0 1318.0 1327.0 1313.0 1318.0 1318.0 1307.0 1316.0 1327.0 1337.0 1333.0 1343.0 1355.0 1345.0 1359.0 1378.0 1401.0 1413.0 1424.0 1434.0 1443.0 1435.0 1438.0 1438.0 1427.0 1425.0 1428.0 1434.0 1424.0 1433.0 1441.0 1437.0 1441.0 1441.0 1443.0 1429.0 1427.0 1425.0 1410.0 1411.0 1411.0 1411.0 1401.0 1401.0 1398.0 1391.0 -9999.0 -9999.0 -9999.0 -9999.0 -9999.0 -9999.0 -9999.0 -9999.0 -9999.0 -9999.0 -9999.0 -9999.0 -9999.0 -9999.0 -9999.0 -9999.0 -9999.0 -9999.0 -9999.0 -9999.0 -9999.0 -9999.0 -9999.0 -9999.0 -9999.0 -9999.0 -9999.0 -9999.0 -9999.0 -9999.0 -9999.0 -9999.0 -9999.0 -9999.0 -9999.0
-9999.0 -9999.0 -9999.0 -9999.0 -9999.0 -9999.0 -9999.0 -9999.0 -9999.0 -9999.0 -9999.0 -9999.0 -9999.0 -9999.0 -9999.0 -9999.0 -9999.0 -9999.0 -9999.0 -9999.0 -9999.0 -9999.0 -9999.0 -9999.0 -9999.0 -9999.0 -9999.0 -9999.0 -9999.0 -9999.0 -9999.0 -9999.0 -9999.0 -9999.0 -9999.0 -9999.0 -9999.0 -9999.0 -9999.0 -9999.0 -9999.0 -9999.0 -9999.0 -9999.0 -9999.0 -9999.0 -9999.0 -9999.0 -9999.0 -9999.0 -9999.0 -9999.0 -9999.0 -9999.0 -9999.0 -9999.0 -9999.0 -9999.0 -9999.0 -9999.0 -9999.0 -9999.0 -9999.0 -9999.0 -9999.0 -9999.0 -9999.0 -9999.0 -9999.0 -9999.0 -9999.0 -9999.0 -9999.0 -9999.0 -9999.0 -9999.0 -9999.0 -9999.0 -9999.0 -9999.0 -9999.0 -9999.0 -9999.0 -9999.0 -9999.0 -9999.0 -9999.0 -9999.0 -9999.0 -9999.0 -9999.0 -9999.0 -9999.0 -9999.0 -9999.0 -9999.0 -9999.0 -9999.0 822.0 816.0 816.0 804.0 792.0 780.0 768.0 760.0 749.0 742.0 732.0 726.0 736.0 742.0 744.0 734.0 731.0 734.0 730.0 729.0 728.0 732.0 722.0 726.0 734.0 732.0 739.0 748.0 760.0 770.0 783.0 793.0 782.0 786.0 790.0 785.0 768.0 761.0 750.0 734.0 711.0 695.0 681.0 669.0 665.0 663.0 658.0 647.0 644.0 644.0 636.0 635.0 636.0 636.0 627.0 627.0 628.0 622.0 626.0 628.0 625.0 607.0 596.0 593.5 594.0 595.0 596.0 597.0 602.0 607.0 614.0 623.0 625.0 630.0 638.0 650.0 657.0 665.0 673.0 686.0 692.0 699.0 702.0 708.0 712.0 713.0 703.0 706.0 711.0 713.0 719.0 730.0 749.0 762.0 776.0 776.0 795.0 812.0 824.0 834.0 845.0 854.0 863.0 870.0 873.0 879.0 883.0 887.0 894.0 904.0 914.0 930.0 946.0 965.0 982.0 998.0 1013.0 1028.0 1024.0 1034.0 1046.0 1044.0 1053.0 1060.0 1065.0 1060.0 1065.0 1068.0 1070.0 1066.0 1067.0 1068.0 1065.0 1064.0 1063.0 1061.0 1054.0 1052.0 1052.0 1047.0 1046.0 1046.0 1045.0 1036.0 1032.0 1027.0 1013.0 1011.0 1011.0 1011.0 1001.0 998.0 994.0 992.0 982.0 977.0 973.0 958.0 959.0 957.0 955.0 941.0 936.0 930.0 918.0 918.0 913.0 912.0 909.0 913.0 918.0 916.0 917.0 917.0 920.0 920.0 923.0 925.0 922.0 923.0 925.0 925.0 924.0 925.0 926.0 927.0 925.0 925.0 925.0 925.0 925.0 925.0 927.0 927.0 928.0 931.0 931.0 932.0 934.0 936.0 937.0 940.0 943.0 945.0 948.0 952.0 958.0 965.0 971.0 977.0 992.0 992.0 1000.0 1009.0 1019.0 1027.0 1039.0 1051.0 1058.0 1076.0 1092.0 1096.0 1112.0 1124.0 1136.0 1145.0 1166.0 1189.0 1196.0 1216.0 1232.0 1263.0 1265.0 1277.0 1277.0 1267.0 1276.0 1288.0 1301.0 1295.0 1299.0 1301.0 1286.0 1299.0 1312.0 1323.0 1320.0 1328.0 1335.0 1345.0 1347.0 1366.0 1388.0 1404.0 1416.0 1424.0 1430.0 1424.0 1426.0 1426.0 1417.0 1417.0 1414.0 1418.0 1417.0 1424.0 1431.0 1425.0 1427.0 1427.0 1428.0 1415.0 1412.0 1410.0 1410.0 1399.0 1399.0 1400.0 1389.0 1389.0 1389.0 1388.0 1382.0 -9999.0 -9999.0 -9999.0 -9999.0 -9999.0 -9999.0 -9999.0 -9999.0 -9999.0 -9999.0 -9999.0 -9999.0 -9999.0 -9999.0 -9999.0 -9999.0 -9999.0 -9999.0 -9999.0 -9999.0 -9999.0 -9999.0 -9999.0 -9999.0 -9999.0 -9999.0 -9999.0 -9999.0 -9999.0 -9999.0 -9999.0 -9999.0 -9999.0 -9999.0
-9999.0 -9999.0 -9999.0 -9999.0 -9999.0 -9999.0 -9999.0 -9999.0 -9999.0 -9999.0 -9999.0 -9999.0 -9999.0 -9999.0 -9999.0 -9999.0 -9999.0 -9999.0 -9999.0 -9999.0 -9999.0 -9999.0 -9999.0 -9999.0 -9999.0 -9999.0 -9999.0 -9999.0 -9999.0 -9999.0 -9999.0 -9999.0 -9999.0 -9999.0 -9999.0 -9999.0 -9999.0 -9999.0 -9999.0 -9999.0 -9999.0 -9999.0 -9999.0 -9999.0 -9999.0 -9999.0 -9999.0 -9999.0 -9999.0 -9999.0 -9999.0 -9999.0 -9999.0 -9999.0 -9999.0 -9999.0 -9999.0 -9999.0 -9999.0 -9999.0 -9999.0 -9999.0 -9999.0 -9999.0 -9999.0 -9999.0 -9999.0 -9999.0 -9999.0 -9999.0 -9999.0 -9999.0 -9999.0 -9999.0 -9999.0 -9999.0 -9999.0 -9999.0 -9999.0 -9999.0 -9999.0 -9999.0 -9999.0 -9999.0 -9999.0 -9999.0 -9999.0 -9999.0 -9999.0 -9999.0 -9999.0 -9999.0 -9999.0 -9999.0 -9999.0 -9999.0 -9999.0 -9999.0 823.0 819.0 812.0 802.0 793.0 782.0 770.0 759.0 745.0 736.0 725.0 720.0 728.0 732.0 735.0 729.0 727.0 729.0 724.0 724.0 722.0 719.0 712.0 715.0 724.0 731.0 737.0 742.0 755.0 763.0 773.0 780.0 782.0 772.0 775.0 774.0 764.0 760.0 748.0 730.0 709.0 694.0 694.0 677.0 665.0 657.0 654.0 644.0 641.0 638.0 632.0 630.0 629.0 629.0 620.0 619.0 621.0 622.0 619.0 620.0 617.0 597.0 593.0 593.0 593.0 594.0 595.0 596.0 600.0 604.0 609.0 616.0 624.0 630.0 639.0 650.0 658.0 666.0 676.0 684.0 690.0 697.0 694.0 698.0 699.0 700.0 688.0 692.0 692.0 701.0 704.0 715.0 731.0 749.0 762.0 777.0 794.0 810.0 824.0 835.0 842.0 851.0 862.0 869.0 870.0 878.0 883.0 886.0 893.0 903.0 914.0 929.0 929.0 945.0 964.0 982.0 997.0 1010.0 1016.0 1026.0 1035.0 1044.0 1036.0 1046.0 1054.0 1053.0 1058.0 1061.0 1065.0 1062.0 1064.0 1065.0 1062.0 1061.0 1059.0 1059.0 1050.0 1048.0 1047.0 1041.0 1042.0 1041.0 1040.0 1029.0 1023.0 1017.0 1013.0 1004.0 1004.0 1004.0 995.0 992.0 988.0 984.0 968.0 964.0 959.0 947.0 947.0 947.0 945.0 934.0 931.0 927.0 916.0 910.0 905.0 905.0 902.0 907.0 913.0 910.0 911.0 912.0 916.0 916.0 919.0 920.0 922.0 919.0 921.0 921.0 919.0 921.0 923.0 924.0 923.0 923.0 924.0 924.3333 924.6667 925.0 925.0 925.0 927.0 930.0 929.0 930.0 933.0 935.0 936.0 940.0 942.0 944.0 944.0 947.0 951.0 959.0 966.0 973.0 982.0 998.0 1007.0 1014.0 1019.0 1024.0 1032.0 1041.0 1047.0 1063.0 1079.0 1086.0 1104.0 1117.0 1130.0 1137.0 1153.0 1170.0 1159.0 1183.0 1203.0 1220.0 1234.0 1249.0 1259.0 1267.0 1261.0 1277.0 1289.0 1283.0 1285.0 1284.0 1286.0 1285.0 1297.0 1310.0 1302.0 1312.0 1319.0 1329.0 1343.0 1343.0 1360.0 1380.0 1397.0 1409.0 1418.0 1417.0 1417.0 1415.0 1402.0 1404.0 1403.0 1409.0 1409.0 1416.0 1421.0 1425.0 1418.0 1417.0 1415.0 1401.0 1399.0 1398.0 1398.0 1383.0 1384.0 1386.0 1377.0 1379.0 1380.0 1380.0 1380.0 1386.0 1391.0 -9999.0 -9999.0 -9999.0 -9999.0 -9999.0 -9999.0 -9999.0 -9999.0 -9999.0 -9999.0 -9999.0 -9999.0 -9999.0 -9999.0 -9999.0 -9999.0 -9999.0 -9999.0 -9999.0 -9999.0 -9999.0 -9999.0 -9999.0 -9999.0 -9999.0 -9999.0 -9999.0 -9999.0 -9999.0 -9999.0 -9999.0 -9999.0
-9999.0 -9999.0 -9999.0 -9999.0 -9999.0 -9999.0 -9999.0 -9999.0 -9999.0 -9999.0 -9999.0 -9999.0 -9999.0 -9999.0 -9999.0 -9999.0 -9999.0 -9999.0 -9999.0 -9999.0 -9999.0 -9999.0 -9999.0 -9999.0 -9999.0 -9999.0 -9999.0 -9999.0 -9999.0 -9999.0 -9999.0 -9999.0 -9999.0 -9999.0 -9999.0 -9999.0 -9999.0 -9999.0 -9999.0 -9999.0 -9999.0 -9999.0 -9999.0 -9999.0 -9999.0 -9999.0 -9999.0 -9999.0 -9999.0 -9999.0 -9999.0 -9999.0 -9999.0 -9999.0 -9999.0 -9999.0 -9999.0 -9999.0 -9999.0 -9999.0 -9999.0 -9999.0 -9999.0 -9999.0 -9999.0 -9999.0 -9999.0 -9999.0 -9999.0 -9999.0 -9999.0 -9999.0 -9999.0 -9999.0 -9999.0 -9999.0 -9999.0 -9999.0 -9999.0 -9999.0 -9999.0 -9999.0 -9999.0 -9999.0 -9999.0 -9999.0 -9999.0 -9999.0 -9999.0 -9999.0 -9999.0 -9999.0 -9999.0 -9999.0 -9999.0 -9999.0 -9999.0 -9999.0 821.0 813.0 806.0 800.0 793.0 783.0 771.0 757.0 737.0 729.0 719.0 712.0 712.0 718.0 721.0 728.0 725.0 722.0 717.0 718.0 716.0 713.0 704.0 713.0 724.0 731.0 734.0 740.0 748.0 758.0 763.0 765.0 767.0 760.0 765.0 766.0 761.0 761.0 758.0 747.0 731.0 709.0 692.0 672.0 661.0 650.0 645.0 637.0 636.0 634.0 632.0 625.0 623.0 622.0 610.0 612.0 613.0 615.0 609.0 609.0 609.0 596.0 593.0 592.0 592.0 594.0 596.0 597.0 602.0 605.0 609.0 615.0 618.0 626.0 638.0 645.0 654.0 662.0 673.0 675.0 685.0 690.0 690.0 681.0 684.0 685.0 674.0 676.0 683.0 694.0 704.0 718.0 735.0 746.0 758.0 773.0 792.0 808.0 820.0 831.0 835.0 842.0 854.0 863.0 864.0 864.0 873.0 874.0 881.0 890.0 899.0 908.0 927.0 944.0 964.0 980.0 992.0 1003.0 1004.0 1013.0 1020.0 1027.0 1021.0 1033.0 1045.0 1041.0 1047.0 1053.0 1053.0 1049.0 1057.0 1061.0 1055.0 1056.0 1055.0 1053.0 1040.0 1038.0 1039.0 1041.0 1035.0 1035.0 1033.0 1019.0 1014.0 1009.0 1005.0 998.0 998.0 997.0 989.0 989.0 984.0 978.0 958.0 955.0 952.0 942.0 939.0 938.0 936.0 923.0 921.0 919.0 907.0 900.0 895.0 898.0 896.0 901.0 906.0 910.0 904.0 907.0 912.0 907.0 911.0 915.0 916.0 914.0 916.0 918.0 918.0 919.0 921.0 922.0 922.0 923.0 924.0 924.25 924.3334 924.3334 925.0 924.0 925.0 928.0 926.0 929.0 929.0 931.0 931.0 934.0 938.0 941.0 942.0 946.0 951.0 959.0 967.0 976.0 987.0 1002.0 1010.0 1015.0 1016.0 1018.0 1022.0 1033.0 1035.0 1048.0 1066.0 1060.0 1079.0 1097.0 1112.0 1121.0 1131.0 1143.0 1159.0 1180.0 1198.0 1216.0 1221.0 1232.0 1241.0 1250.0 1248.0 1263.0 1277.0 1263.0 1266.0 1265.0 1271.0 1271.0 1271.0 1284.0 1278.0 1284.0 1293.0 1307.0 1322.0 1340.0 1358.0 1375.0 1389.0 1402.0 1411.0 1408.0 1405.0 1402.0 1402.0 1390.0 1391.0 1399.0 1399.0 1407.0 1411.0 1411.0 1404.0 1404.0 1402.0 1385.0 1384.0 1384.0 1384.0 1370.0 1372.0 1375.0 1368.0 1370.0 1372.0 1375.0 1378.0 1386.0 1393.0 1405.0 -9999.0 -9999.0 -9999.0 -9999.0 -9999.0 -9999.0 -9999.0 -9999.0 -9999.0 -9999.0 -9999.0 -9999.0 -9999.0 -9999.0 -9999.0 -9999.0 -9999.0 -9999.0 -9999.0 -9999.0 -9999.0 -9999.0 -9999.0 -9999.0 -9999.0 -9999.0 -9999.0 -9999.0 -9999.0 -9999.0 -9999.0
-9999.0 -9999.0 -9999.0 -9999.0 -9999.0 -9999.0 -9999.0 -9999.0 -9999.0 -9999.0 -9999.0 -9999.0 -9999.0 -9999.0 -9999.0 -9999.0 -9999.0 -9999.0 -9999.0 -9999.0 -9999.0 -9999.0 -9999.0 -9999.0 -9999.0 -9999.0 -9999.0 -9999.0 -9999.0 -9999.0 -9999.0 -9999.0 -9999.0 -9999.0 -9999.0 -9999.0 -9999.0 -9999.0 -9999.0 -9999.0 -9999.0 -9999.0 -9999.0 -9999.0 -9999.0 -9999.0 -9999.0 -9999.0 -9999.0 -9999.0 -9999.0 -9999.0 -9999.0 -9999.0 -9999.0 -9999.0 -9999.0 -9999.0 -9999.0 -9999.0 -9999.0 -9999.0 -9999.0 -9999.0 -9999.0 -9999.0 -9999.0 -9999.0 -9999.0 -9999.0 -9999.0 -9999.0 -9999.0 -9999.0 -9999.0 -9999.0 -9999.0 -9999.0 -9999.0 -9999.0 -9999.0 -9999.0 -9999.0 -9999.0 -9999.0 -9999.0 -9999.0 -9999.0 -9999.0 -9999.0 -9999.0 -9999.0 -9999.0 -9999.0 -9999.0 -9999.0 -9999.0 -9999.0 816.0 805.0 802.0 798.0 787.0 780.0 780.0 766.0 739.0 726.0 715.0 705.0 704.0 709.0 719.0 728.0 720.0 716.0 717.0 710.0 709.0 705.0 700.0 713.0 724.0 730.0 733.0 739.0 747.0 747.0 753.0 754.0 754.0 741.0 746.0 755.0 749.0 754.0 753.0 745.0 732.0 707.0 688.0 672.0 660.0 646.0 637.0 630.0 630.0 629.0 627.0 620.0 620.0 617.0 610.0 607.0 607.0 606.0 598.0 600.0 599.0 593.0 591.0 591.0 593.0 595.0 597.0 599.0 606.0 607.0 608.0 612.0 618.5 620.0 630.0 630.0 630.0 641.0 653.0 651.0 660.0 670.0 678.0 666.0 668.0 671.0 668.0 673.0 681.0 690.0 703.0 716.0 731.0 744.0 756.0 773.0 792.0 800.0 813.0 813.0 826.0 825.0 830.0 842.0 847.0 857.0 867.0 874.0 874.0 885.0 894.0 907.0 927.0 945.0 964.0 974.0 985.0 994.0 989.0 996.0 1003.0 1011.0 995.0 1005.0 1020.0 1014.0 1023.0 1030.0 1040.0 1039.0 1049.0 1053.0 1055.0 1049.0 1049.0 1045.0 1028.0 1027.0 1030.0 1034.0 1026.0 1025.0 1023.0 1010.0 1006.0 1006.0 1003.0 993.0 992.0 992.0 985.0 980.0 973.0 964.0 945.0 944.0 943.0 934.0 932.0 930.0 926.0 914.0 913.0 911.0 907.0 892.0 888.0 890.0 884.0 890.0 895.0 899.0 895.0 897.0 902.0 901.0 905.0 909.0 912.0 909.0 913.0 916.0 917.0 918.0 919.0 921.0 922.0 923.0 924.0 925.0 924.6126 924.0 924.0 923.0 922.0 923.0 925.0 924.0 928.0 930.0 928.0 932.0 936.0 938.0 940.0 945.0 950.0 957.0 966.0 977.0 990.0 1003.0 1010.0 1014.0 1008.0 1007.0 1007.0 1014.0 1014.0 1025.0 1041.0 1060.0 1077.0 1094.0 1109.0 1117.0 1128.0 1139.0 1154.0 1179.0 1195.0 1210.0 1203.0 1211.0 1223.0 1235.0 1235.0 1246.0 1246.0 1238.0 1245.0 1247.0 1245.0 1237.0 1254.0 1269.0 1259.0 1265.0 1279.0 1302.0 1322.0 1339.0 1357.0 1375.0 1381.0 1394.0 1405.0 1394.0 1391.0 1388.0 1388.0 1374.0 1376.0 1380.0 1377.0 1387.0 1395.0 1400.0 1386.0 1387.0 1386.0 1369.0 1369.0 1371.0 1371.0 1358.0 1362.0 1365.0 1359.0 1362.0 1365.0 1370.0 1376.0 1385.0 1385.0 1394.0 1407.0 -9999.0 -9999.0 -9999.0 -9999.0 -9999.0 -9999.0 -9999.0 -9999.0 -9999.0 -9999.0 -9999.0 -9999.0 -9999.0 -9999.0 -9999.0 -9999.0 -9999.0 -9999.0 -9999.0 -9999.0 -9999.0 -9999.0 -9999.0 -9999.0 -9999.0 -9999.0 -9999.0 -9999.0 -9999.0 -9999.0
-9999.0 -9999.0 -9999.0 -9999.0 -9999.0 -9999.0 -9999.0 -9999.0 -9999.0 -9999.0 -9999.0 -9999.0 -9999.0 -9999.0 -9999.0 -9999.0 -9999.0 -9999.0 -9999.0 -9999.0 -9999.0 -9999.0 -9999.0 -9999.0 -9999.0 -9999.0 -9999.0 -9999.0 -9999.0 -9999.0 -9999.0 -9999.0 -9999.0 -9999.0 -9999.0 -9999.0 -9999.0 -9999.0 -9999.0 -9999.0 -9999.0 -9999.0 -9999.0 -9999.0 -9999.0 -9999.0 -9999.0 -9999.0 -9999.0 -9999.0 -9999.0 -9999.0 -9999.0 -9999.0 -9999.0 -9999.0 -9999.0 -9999.0 -9999.0 -9999.0 -9999.0 -9999.0 -9999.0 -9999.0 -9999.0 -9999.0 -9999.0 -9999.0 -9999.0 -9999.0 -9999.0 -9999.0 -9999.0 -9999.0 -9999.0 -9999.0 -9999.0 -9999.0 -9999.0 -9999.0 -9999.0 -9999.0 -9999.0 -9999.0 -9999.0 -9999.0 -9999.0 -9999.0 -9999.0 -9999.0 -9999.0 -9999.0 -9999.0 -9999.0 -9999.0 -9999.0 -9999.0 -9999.0 811.0 802.0 799.0 796.0 793.0 776.0 768.0 756.0 729.0 716.0 703.0 698.0 701.0 711.0 722.0 720.0 713.0 709.0 710.0 702.0 699.0 696.0 686.0 697.0 709.0 721.0 724.0 733.0 742.0 748.0 749.0 746.0 743.0 722.0 727.0 738.0 749.0 739.0 745.0 743.0 730.0 706.0 688.0 673.0 660.0 641.0 641.0 623.0 624.0 625.0 625.0 618.0 616.0 613.0 606.0 603.0 603.0 600.0 595.0 594.0 594.0 590.0 589.0 590.0 592.0 597.0 601.0 604.0 606.0 610.0 610.0 611.0 621.0 621.0 624.0 625.0 632.0 635.0 642.0 641.0 646.0 654.0 661.0 656.0 658.0 663.0 674.0 684.0 692.0 697.0 717.0 722.0 722.0 731.0 748.0 759.0 772.0 779.0 790.0 807.0 820.0 814.0 818.0 830.0 833.0 847.0 857.0 866.0 870.0 882.0 893.0 908.0 926.0 942.0 959.0 949.0 963.0 973.0 964.0 972.0 978.0 986.0 975.0 987.0 1001.0 1014.0 1008.0 1016.0 1027.0 1027.0 1037.0 1043.0 1046.0 1037.0 1038.0 1033.0 1015.0 1016.0 1016.0 1018.0 1011.0 1014.0 1014.0 1003.0 1001.0 999.0 996.0 986.0 985.0 986.0 971.0 966.0 959.0 950.0 933.0 934.0 935.0 934.0 925.0 922.0 918.0 907.0 907.0 904.0 902.0 891.0 885.0 882.0 878.0 883.0 889.0 893.0 888.0 891.0 897.0 896.0 898.0 902.0 906.0 905.0 910.0 914.0 917.0 917.0 918.0 918.0 920.0 923.0 925.0 925.0 926.0 925.0 923.0 921.0 919.0 919.0 921.0 920.0 924.0 926.0 924.0 928.0 931.0 935.0 939.0 944.0 950.0 956.0 956.0 966.0 979.0 995.0 1002.0 1006.0 1008.0 996.0 997.0 1005.0 1007.0 1020.0 1037.0 1057.0 1074.0 1090.0 1103.0 1112.0 1126.0 1138.0 1155.0 1177.0 1189.0 1189.0 1182.0 1185.0 1191.0 1207.0 1209.0 1219.0 1228.0 1221.0 1229.0 1233.0 1231.0 1221.0 1238.0 1251.0 1259.0 1253.0 1279.0 1301.0 1321.0 1338.0 1355.0 1371.0 1365.0 1373.0 1383.0 1375.0 1378.0 1377.0 1374.0 1358.0 1362.0 1367.0 1363.0 1374.0 1381.0 1385.0 1373.0 1372.0 1370.0 1352.0 1354.0 1357.0 1358.0 1345.0 1351.0 1351.0 1356.0 1349.0 1353.0 1358.0 1362.0 1374.0 1385.0 1396.0 1407.0 1418.0 -9999.0 -9999.0 -9999.0 -9999.0 -9999.0 -9999.0 -9999.0 -9999.0 -9999.0 -9999.0 -9999.0 -9999.0 -9999.0 -9999.0 -9999.0 -9999.0 -9999.0 -9999.0 -9999.0 -9999.0 -9999.0 -9999.0 -9999.0 -9999.0 -9999.0 -9999.0 -9999.0 -9999.0 -9999.0
-9999.0 -9999.0 -9999.0 -9999.0 -9999.0 -9999.0 -9999.0 -9999.0 -9999.0 -9999.0 -9999.0 -9999.0 -9999.0 -9999.0 -9999.0 -9999.0 -9999.0 -9999.0 -9999.0 -9999.0 -9999.0 -9999.0 -9999.0 -9999.0 -9999.0 -9999.0 -9999.0 -9999.0 -9999.0 -9999.0 -9999.0 -9999.0 -9999.0 -9999.0 -9999.0 -9999.0 -9999.0 -9999.0 -9999.0 -9999.0 -9999.0 -9999.0 -9999.0 -9999.0 -9999.0 -9999.0 -9999.0 -9999.0 -9999.0 -9999.0 -9999.0 -9999.0 -9999.0 -9999.0 -9999.0 -9999.0 -9999.0 -9999.0 -9999.0 -9999.0 -9999.0 -9999.0 -9999.0 -9999.0 -9999.0 -9999.0 -9999.0 -9999.0 -9999.0 -9999.0 -9999.0 -9999.0 -9999.0 -9999.0 -9999.0 -9999.0 -9999.0 -9999.0 -9999.0 -9999.0 -9999.0 -9999.0 -9999.0 -9999.0 -9999.0 -9999.0 -9999.0 -9999.0 -9999.0 -9999.0 -9999.0 -9999.0 -9999.0 -9999.0 -9999.0 -9999.0 -9999.0 808.0 805.0 796.0 791.0 785.0 781.0 760.0 753.0 743.0 718.0 705.0 695.0 694.0 705.0 718.0 723.0 712.0 712.0 706.0 701.0 693.0 694.0 690.0 681.0 693.0 704.0 715.0 725.0 737.0 746.0 748.0 740.0 732.0 724.0 703.0 710.0 721.0 730.0 723.0 734.0 734.0 727.0 720.0 704.0 689.0 673.0 657.0 637.0 618.0 615.0 618.0 619.0 612.0 610.0 608.0 602.0 601.0 599.0 597.0 593.0 591.0 590.0 590.0 588.0 589.5 593.0 598.0 603.0 607.0 610.0 620.0 620.0 620.0 632.0 632.0 633.0 632.0 645.0 642.0 639.0 650.0 650.0 650.0 652.0 655.0 657.0 661.0 665.0 679.0 691.0 703.0 719.0 729.0 733.0 738.0 748.0 757.0 767.0 776.0 790.0 804.0 811.0 794.0 799.0 815.0 822.0 832.0 846.0 858.0 872.0 872.0 884.0 896.0 908.0 924.0 937.0 938.0 947.0 955.0 964.0 954.0 960.0 966.0 958.0 967.0 982.0 998.0 993.0 1003.0 1014.0 1013.0 1023.0 1030.0 1030.0 1019.0 1021.0 1021.0 1004.0 1005.0 1005.0 1007.0 1002.0 1004.0 1004.0 994.0 993.0 991.0 989.0 975.0 974.0 975.0 971.0 950.0 943.0 937.0 923.0 923.0 925.0 926.0 919.0 918.0 914.0 903.0 899.0 896.0 894.0 884.0 880.0 877.0 872.0 877.0 882.0 885.0 883.0 887.0 892.0 896.0 891.0 894.0 894.0 893.0 901.0 907.0 912.0 913.0 916.0 918.0 923.0 928.0 927.0 927.0 928.0 927.0 923.0 919.0 917.0 916.0 917.0 915.0 918.0 921.0 919.0 919.0 923.0 927.0 930.0 937.0 943.0 949.0 957.0 968.0 983.0 993.0 998.0 999.0 998.0 986.0 986.0 996.0 1003.0 1018.0 1033.0 1054.0 1068.0 1084.0 1098.0 1093.0 1110.0 1126.0 1140.0 1156.0 1170.0 1178.0 1165.0 1166.0 1174.0 1191.0 1196.0 1205.0 1213.0 1221.0 1211.0 1214.0 1211.0 1207.0 1224.0 1233.0 1238.0 1254.0 1254.0 1281.0 1301.0 1321.0 1337.0 1353.0 1359.0 1366.0 1371.0 1364.0 1364.0 1362.0 1358.0 1341.0 1345.0 1351.0 1363.0 1363.0 1369.0 1372.0 1359.0 1357.0 1353.0 1353.0 1334.0 1338.0 1342.0 1328.0 1332.0 1339.0 1346.0 1335.0 1341.0 1352.0 1360.0 1371.0 1384.0 1396.0 1405.0 1421.0 1433.0 1449.0 -9999.0 -9999.0 -9999.0 -9999.0 -9999.0 -9999.0 -9999.0 -9999.0 -9999.0 -9999.0 -9999.0 -9999.0 -9999.0 -9999.0 -9999.0 -9999.0 -9999.0 -9999.0 -9999.0 -9999.0 -9999.0 -9999.0 -9999.0 -9999.0 -9999.0 -9999.0 -9999.0
-9999.0 -9999.0 -9999.0 -9999.0 -9999.0 -9999.0 -9999.0 -9999.0 -9999.0 -9999.0 -9999.0 -9999.0 -9999.0 -9999.0 -9999.0 -9999.0 -9999.0 -9999.0 -9999.0 -9999.0 -9999.0 -9999.0 -9999.0 -9999.0 -9999.0 -9999.0 -9999.0 -9999.0 -9999.0 -9999.0 -9999.0 -9999.0 -9999.0 -9999.0 -9999.0 -9999.0 -9999.0 -9999.0 -9999.0 -9999.0 -9999.0 -9999.0 -9999.0 -9999.0 -9999.0 -9999.0 -9999.0 -9999.0 -9999.0 -9999.0 -9999.0 -9999.0 -9999.0 -9999.0 -9999.0 -9999.0 -9999.0 -9999.0 -9999.0 -9999.0 -9999.0 -9999.0 -9999.0 -9999.0 -9999.0 -9999.0 -9999.0 -9999.0 -9999.0 -9999.0 -9999.0 -9999.0 -9999.0 -9999.0 -9999.0 -9999.0 -9999.0 -9999.0 -9999.0 -9999.0 -9999.0 -9999.0 -9999.0 -9999.0 -9999.0 -9999.0 -9999.0 -9999.0 -9999.0 -9999.0 -9999.0 -9999.0 -9999.0 -9999.0 -9999.0 -9999.0 -9999.0 805.0 800.0 788.0 779.0 771.0 765.0 741.0 736.0 730.0 702.0 702.0 693.0 688.0 697.0 711.0 723.0 710.0 704.0 698.0 694.0 687.0 684.0 677.0 676.0 691.0 702.0 713.0 730.0 742.0 748.0 747.0 726.0 712.0 703.0 681.0 683.0 691.0 703.0 699.0 710.0 720.0 712.0 711.0 700.0 687.0 668.0 650.0 633.0 614.0 607.0 610.0 612.0 602.0 603.0 603.0 602.0 597.0 597.0 596.0 591.0 590.0 588.0 587.0 588.0 589.0 592.0 605.0 611.0 616.0 619.0 629.0 629.0 631.0 641.0 642.0 643.0 645.0 657.0 655.0 651.0 651.0 663.0 663.0 660.0 668.0 664.0 661.0 668.0 678.0 691.0 704.0 717.0 729.0 734.0 740.0 738.0 747.0 762.0 780.0 788.0 792.0 794.0 776.0 776.0 787.0 808.0 822.0 834.0 846.0 862.0 875.0 886.0 896.0 906.0 917.0 929.0 925.0 930.0 936.0 945.0 937.0 945.0 951.0 945.0 954.0 967.0 967.0 964.0 976.0 990.0 989.0 1001.0 1010.0 1015.0 1005.0 1005.0 1005.0 1004.0 996.0 996.0 998.0 992.0 994.0 994.0 994.0 982.0 981.0 979.0 959.0 959.0 957.0 958.0 938.0 933.0 927.0 912.0 912.0 914.0 917.0 910.0 909.0 906.0 896.0 892.0 889.0 887.0 879.0 876.0 872.0 872.0 871.0 876.0 879.0 875.0 879.0 883.0 887.0 882.0 885.0 889.0 892.0 899.0 905.0 909.0 910.0 914.0 917.0 923.0 928.0 928.0 928.0 928.0 927.0 923.0 918.0 916.0 916.0 914.0 910.0 911.0 913.0 916.0 914.0 917.0 922.0 928.0 935.0 941.0 947.0 957.0 971.0 984.0 986.0 989.0 989.0 987.0 972.0 974.0 987.0 985.0 1002.0 1015.0 1030.0 1044.0 1062.0 1077.0 1092.0 1110.0 1128.0 1141.0 1149.0 1158.0 1162.0 1165.0 1148.0 1163.0 1182.0 1186.0 1193.0 1200.0 1205.0 1188.0 1188.0 1187.0 1170.0 1192.0 1206.0 1213.0 1230.0 1258.0 1281.0 1302.0 1320.0 1337.0 1350.0 1355.0 1359.0 1362.0 1364.0 1348.0 1344.0 1340.0 1326.0 1327.0 1333.0 1333.0 1341.0 1355.0 1360.0 1346.0 1343.0 1340.0 1335.0 1321.0 1325.0 1327.0 1316.0 1319.0 1326.0 1331.0 1323.0 1333.0 1347.0 1357.0 1369.0 1381.0 1393.0 1400.0 1400.0 1422.0 1441.0 1456.0 -9999.0 -9999.0 -9999.0 -9999.0 -9999.0 -9999.0 -9999.0 -9999.0 -9999.0 -9999.0 -9999.0 -9999.0 -9999.0 -9999.0 -9999.0 -9999.0 -9999.0 -9999.0 -9999.0 -9999.0 -9999.0 -9999.0 -9999.0 -9999.0 -9999.0 -9999.0
-9999.0 -9999.0 -9999.0 -9999.0 -9999.0 -9999.0 -9999.0 -9999.0 -9999.0 -9999.0 -9999.0 -9999.0 -9999.0 -9999.0 -9999.0 -9999.0 -9999.0 -9999.0 -9999.0 -9999.0 -9999.0 -9999.0 -9999.0 -9999.0 -9999.0 -9999.0 -9999.0 -9999.0 -9999.0 -9999.0 -9999.0 -9999.0 -9999.0 -9999.0 -9999.0 -9999.0 -9999.0 -9999.0 -9999.0 -9999.0 -9999.0 -9999.0 -9999.0 -9999.0 -9999.0 -9999.0 -9999.0 -9999.0 -9999.0 -9999.0 -9999.0 -9999.0 -9999.0 -9999.0 -9999.0 -9999.0 -9999.0 -9999.0 -9999.0 -9999.0 -9999.0 -9999.0 -9999.0 -9999.0 -9999.0 -9999.0 -9999.0 -9999.0 -9999.0 -9999.0 -9999.0 -9999.0 -9999.0 -9999.0 -9999.0 -9999.0 -9999.0 -9999.0 -9999.0 -9999.0 -9999.0 -9999.0 -9999.0 -9999.0 -9999.0 -9999.0 -9999.0 -9999.0 -9999.0 -9999.0 -9999.0 -9999.0 -9999.0 -9999.0 -9999.0 -9999.0 -9999.0 801.0 797.0 780.0 767.0 767.0 754.0 729.0 723.0 720.0 692.0 688.0 678.0 679.0 698.0 710.0 715.0 710.0 695.0 691.0 688.0 678.0 671.0 666.0 675.0 690.0 702.0 716.0 723.0 739.0 752.0 754.0 738.0 717.0 695.0 670.0 665.0 675.0 689.0 689.0 698.0 706.0 712.0 700.0 693.0 683.0 656.0 641.0 629.0 614.0 598.0 598.0 600.0 593.0 595.0 596.0 597.0 593.0 593.0 592.0 588.0 587.0 586.75 589.875 593.0 596.0 600.0 615.0 621.0 625.0 628.0 636.0 637.0 639.0 639.0 648.0 650.0 651.0 661.0 665.0 665.0 662.0 673.0 675.0 674.0 683.0 677.0 672.0 671.0 680.0 687.0 701.0 709.0 718.0 724.0 731.0 736.0 750.0 750.0 771.0 777.0 778.0 777.0 763.0 770.0 788.0 808.0 823.0 837.0 849.0 862.0 874.0 885.0 895.0 899.0 910.0 919.0 911.0 916.0 920.0 926.0 910.0 923.0 934.0 925.0 931.0 938.0 951.0 946.0 961.0 974.0 989.0 990.0 998.0 1003.0 994.0 994.0 993.0 994.0 984.0 984.0 987.0 980.0 982.0 982.0 983.0 965.0 965.0 966.0 941.0 939.0 939.0 940.0 922.0 917.0 913.0 898.0 901.0 904.0 907.0 900.0 900.0 899.0 896.0 887.0 884.0 881.0 877.0 874.0 871.0 867.0 863.0 867.0 872.0 871.0 875.0 879.0 880.0 876.0 880.0 886.0 893.0 899.0 903.0 907.0 908.0 912.0 916.0 919.0 926.0 926.0 928.0 926.0 926.0 924.0 921.0 915.0 913.0 910.0 905.0 906.0 909.0 911.0 910.0 913.0 919.0 926.0 932.0 937.0 946.0 956.0 968.0 979.0 971.0 975.0 978.0 979.0 960.0 960.0 970.0 985.0 1001.0 1014.0 1027.0 1043.0 1060.0 1075.0 1092.0 1110.0 1126.0 1137.0 1139.0 1146.0 1148.0 1148.0 1139.0 1159.0 1159.0 1169.0 1176.0 1181.0 1185.0 1170.0 1168.0 1162.0 1160.0 1178.0 1191.0 1205.0 1236.0 1261.0 1281.0 1302.0 1319.0 1336.0 1348.0 1350.0 1351.0 1351.0 1349.0 1334.0 1331.0 1329.0 1308.0 1307.0 1314.0 1324.0 1334.0 1348.0 1350.0 1329.0 1327.0 1324.0 1321.0 1310.0 1313.0 1315.0 1304.0 1308.0 1313.0 1317.0 1317.0 1329.0 1329.0 1343.0 1354.0 1365.0 1378.0 1392.0 1406.0 1422.0 1445.0 1459.0 -9999.0 -9999.0 -9999.0 -9999.0 -9999.0 -9999.0 -9999.0 -9999.0 -9999.0 -9999.0 -9999.0 -9999.0 -9999.0 -9999.0 -9999.0 -9999.0 -9999.0 -9999.0 -9999.0 -9999.0 -9999.0 -9999.0 -9999.0 -9999.0 -9999.0 -9999.0
-9999.0 -9999.0 -9999.0 -9999.0 -9999.0 -9999.0 -9999.0 -9999.0 -9999.0 -9999.0 -9999.0 -9999.0 -9999.0 -9999.0 -9999.0 -9999.0 -9999.0 -9999.0 -9999.0 -9999.0 -9999.0 -9999.0 -9999.0 -9999.0 -9999.0 -9999.0 -9999.0 -9999.0 -9999.0 -9999.0 -9999.0 -9999.0 -9999.0 -9999.0 -9999.0 -9999.0 -9999.0 -9999.0 -9999.0 -9999.0 -9999.0 -9999.0 -9999.0 -9999.0 -9999.0 -9999.0 -9999.0 -9999.0 -9999.0 -9999.0 -9999.0 -9999.0 -9999.0 -9999.0 -9999.0 -9999.0 -9999.0 -9999.0 -9999.0 -9999.0 -9999.0 -9999.0 -9999.0 -9999.0 -9999.0 -9999.0 -9999.0 -9999.0 -9999.0 -9999.0 -9999.0 -9999.0 -9999.0 -9999.0 -9999.0 -9999.0 -9999.0 -9999.0 -9999.0 -9999.0 -9999.0 -9999.0 -9999.0 -9999.0 -9999.0 -9999.0 -9999.0 -9999.0 -9999.0 -9999.0 -9999.0 -9999.0 -9999.0 -9999.0 -9999.0 -9999.0 -9999.0 800.0 799.0 786.0 772.0 758.0 741.0 718.0 710.0 705.0 692.0 672.0 663.0 677.0 693.0 702.0 704.0 701.0 687.0 682.0 679.0 669.0 666.0 659.0 661.0 671.0 691.0 707.0 732.0 747.0 757.0 754.0 733.0 712.0 690.0 670.0 655.0 662.0 675.0 675.0 686.0 694.0 699.0 685.0 681.0 681.0 653.0 643.0 632.0 622.0 601.0 592.0 590.0 587.0 589.0 591.0 593.0 590.0 590.0 589.0 586.5 586.5 588.0 591.0 601.0 604.0 609.0 615.0 626.0 631.0 634.0 643.0 643.0 645.0 646.0 654.0 656.0 658.0 670.0 674.0 673.0 672.0 683.0 686.0 686.0 701.0 695.0 688.0 679.0 690.0 689.0 689.0 698.0 702.0 710.0 720.0 741.0 750.0 759.0 771.0 769.0 766.0 765.0 755.0 769.0 786.0 807.0 820.0 834.0 849.0 862.0 873.0 882.0 890.0 883.0 891.0 900.0 892.0 897.0 901.0 905.0 898.0 907.0 917.0 925.0 913.0 920.0 930.0 929.0 947.0 961.0 976.0 977.0 988.0 992.0 981.0 981.0 981.0 981.0 968.0 968.0 968.0 960.0 966.0 967.0 967.0 943.0 945.0 945.0 923.0 923.0 924.0 926.0 906.0 902.0 899.0 898.0 890.0 894.0 897.0 891.0 891.0 891.0 891.0 883.0 882.0 880.0 872.0 870.0 866.0 863.0 857.0 862.0 868.0 866.0 868.0 872.0 874.0 871.0 879.0 886.0 892.0 897.0 901.0 901.0 901.0 905.0 909.0 913.0 913.0 918.0 923.0 919.0 920.0 920.0 917.0 910.0 908.0 905.0 899.0 901.0 905.0 907.0 907.0 912.0 918.0 923.0 923.0 927.0 934.0 944.0 954.0 963.0 971.0 965.0 966.0 964.0 950.0 957.0 969.0 985.0 1002.0 1014.0 1027.0 1043.0 1060.0 1074.0 1091.0 1108.0 1121.0 1121.0 1121.0 1127.0 1132.0 1132.0 1117.0 1135.0 1154.0 1158.0 1165.0 1169.0 1171.0 1153.0 1147.0 1144.0 1160.0 1169.0 1190.0 1213.0 1239.0 1262.0 1282.0 1303.0 1303.0 1318.0 1333.0 1337.0 1340.0 1339.0 1335.0 1314.0 1312.0 1311.0 1289.0 1295.0 1308.0 1320.0 1330.0 1339.0 1336.0 1317.0 1313.0 1311.0 1310.0 1299.0 1302.0 1302.0 1302.0 1292.0 1297.0 1302.0 1303.0 1315.0 1326.0 1340.0 1350.0 1363.0 1377.0 1393.0 1407.0 1422.0 1447.0 1462.0 1470.0 -9999.0 -9999.0 -9999.0 -9999.0 -9999.0 -9999.0 -9999.0 -9999.0 -9999.0 -9999.0 -9999.0 -9999.0 -9999.0 -9999.0 -9999.0 -9999.0 -9999.0 -9999.0 -9999.0 -9999.0 -9999.0 -9999.0 -9999.0 -9999.0 -9999.0
-9999.0 -9999.0 -9999.0 -9999.0 -9999.0 -9999.0 -9999.0 -9999.0 -9999.0 -9999.0 -9999.0 -9999.0 -9999.0 -9999.0 -9999.0 -9999.0 -9999.0 -9999.0 -9999.0 -9999.0 -9999.0 -9999.0 -9999.0 -9999.0 -9999.0 -9999.0 -9999.0 -9999.0 -9999.0 -9999.0 -9999.0 -9999.0 -9999.0 -9999.0 -9999.0 -9999.0 -9999.0 -9999.0 -9999.0 -9999.0 -9999.0 -9999.0 -9999.0 -9999.0 -9999.0 -9999.0 -9999.0 -9999.0 -9999.0 -9999.0 -9999.0 -9999.0 -9999.0 -9999.0 -9999.0 -9999.0 -9999.0 -9999.0 -9999.0 -9999.0 -9999.0 -9999.0 -9999.0 -9999.0 -9999.0 -9999.0 -9999.0 -9999.0 -9999.0 -9999.0 -9999.0 -9999.0 -9999.0 -9999.0 -9999.0 -9999.0 -9999.0 -9999.0 -9999.0 -9999.0 -9999.0 -9999.0 -9999.0 -9999.0 -9999.0 -9999.0 -9999.0 -9999.0 -9999.0 -9999.0 -9999.0 -9999.0 -9999.0 -9999.0 -9999.0 -9999.0 804.0 799.0 796.0 786.0 764.0 749.0 732.0 710.0 699.0 692.0 679.0 660.0 660.0 674.0 682.0 682.0 695.0 696.0 684.0 679.0 671.0 657.0 652.0 649.0 656.0 679.0 698.0 714.0 732.0 752.0 757.0 749.0 729.0 709.0 689.0 667.0 649.0 652.0 652.0 652.0 660.0 670.0 680.0 667.0 667.0 662.0 639.0 631.0 623.0 614.0 592.0 585.0 585.0 583.0 585.0 587.0 589.0 587.0 588.0 586.0 586.25 587.0 590.0 595.0 608.0 612.0 615.0 620.0 639.0 642.0 643.0 652.0 651.0 651.0 653.0 660.0 663.0 666.0 681.0 683.0 682.0 682.0 693.0 696.0 696.0 711.0 715.0 712.0 703.0 707.0 703.0 699.0 698.0 712.0 723.0 732.0 751.0 758.0 764.0 768.0 756.0 754.0 752.0 755.0 769.0 783.0 803.0 819.0 819.0 834.0 848.0 860.0 868.0 875.0 873.0 880.0 887.0 892.0 884.0 888.0 892.0 885.0 892.0 900.0 907.0 896.0 903.0 914.0 915.0 933.0 950.0 950.0 949.0 960.0 969.0 958.0 963.0 965.0 965.0 950.0 951.0 953.0 945.0 949.0 948.0 946.0 924.0 923.0 922.0 923.0 909.0 910.0 910.0 889.0 889.0 886.0 885.0 878.0 881.0 885.0 879.0 881.0 883.0 884.0 877.0 876.0 875.0 868.0 865.0 861.0 857.0 853.0 858.0 864.0 861.0 863.0 864.0 864.0 866.0 872.0 880.0 887.0 892.0 896.0 898.0 898.0 900.0 905.0 909.0 908.0 912.0 916.0 913.0 914.0 914.0 913.0 904.0 901.0 898.0 894.0 894.0 897.0 900.0 899.0 905.0 911.0 917.0 918.0 923.0 932.0 944.0 954.0 958.0 962.0 953.0 953.0 952.0 949.0 956.0 968.0 986.0 1002.0 1013.0 1027.0 1026.0 1045.0 1061.0 1075.0 1089.0 1104.0 1114.0 1110.0 1115.0 1117.0 1115.0 1110.0 1130.0 1147.0 1158.0 1148.0 1152.0 1154.0 1131.0 1123.0 1131.0 1151.0 1169.0 1169.0 1196.0 1223.0 1242.0 1265.0 1285.0 1302.0 1316.0 1329.0 1329.0 1328.0 1324.0 1317.0 1296.0 1293.0 1291.0 1280.0 1293.0 1305.0 1317.0 1324.0 1328.0 1322.0 1322.0 1304.0 1302.0 1299.0 1286.0 1287.0 1289.0 1290.0 1281.0 1286.0 1292.0 1299.0 1310.0 1323.0 1337.0 1347.0 1363.0 1378.0 1394.0 1408.0 1422.0 1446.0 1466.0 1466.0 1477.0 1483.0 1500.0 -9999.0 -9999.0 -9999.0 -9999.0 -9999.0 -9999.0 -9999.0 -9999.0 -9999.0 -9999.0 -9999.0 -9999.0 -9999.0 -9999.0 -9999.0 -9999.0 -9999.0 -9999.0 -9999.0 -9999.0 -9999.0 -9999.0
-9999.0 -9999.0 -9999.0 -9999.0 -9999.0 -9999.0 -9999.0 -9999.0 -9999.0 -9999.0 -9999.0 -9999.0 -9999.0 -9999.0 -9999.0 -9999.0 -9999.0 -9999.0 -9999.0 -9999.0 -9999.0 -9999.0 -9999.0 -9999.0 -9999.0 -9999.0 -9999.0 -9999.0 -9999.0 -9999.0 -9999.0 -9999.0 -9999.0 -9999.0 -9999.0 -9999.0 -9999.0 -9999.0 -9999.0 -9999.0 -9999.0 -9999.0 -9999.0 -9999.0 -9999.0 -9999.0 -9999.0 -9999.0 -9999.0 -9999.0 -9999.0 -9999.0 -9999.0 -9999.0 -9999.0 -9999.0 -9999.0 -9999.0 -9999.0 -9999.0 -9999.0 -9999.0 -9999.0 -9999.0 -9999.0 -9999.0 -9999.0 -9999.0 -9999.0 -9999.0 -9999.0 -9999.0 -9999.0 -9999.0 -9999.0 -9999.0 -9999.0 -9999.0 -9999.0 -9999.0 -9999.0 -9999.0 -9999.0 -9999.0 -9999.0 -9999.0 -9999.0 -9999.0 -9999.0 -9999.0 -9999.0 -9999.0 -9999.0 -9999.0 809.0 807.0 799.0 794.0 787.0 777.0 757.0 742.0 727.0 705.0 705.0 688.0 680.0 663.0 654.0 653.0 659.0 670.0 679.0 685.0 675.0 670.0 663.0 657.0 641.0 647.0 661.0 692.0 708.0 723.0 740.0 754.0 755.0 745.0 742.0 725.0 705.0 686.0 663.0 647.0 644.0 641.0 648.0 655.0 663.0 651.0 650.0 645.0 626.0 619.0 612.0 603.0 584.0 582.0 582.0 583.0 580.0 580.0 584.0 580.0 584.0 586.0 590.0 594.0 599.0 604.0 623.0 628.0 631.0 635.0 654.0 655.0 655.0 666.0 661.0 659.0 659.0 669.0 674.0 679.0 679.0 691.0 692.0 692.0 702.0 703.0 705.0 711.0 725.0 724.0 716.0 721.0 718.0 715.0 710.0 728.0 737.0 744.0 755.0 758.0 760.0 758.0 740.0 740.0 738.0 741.0 753.0 765.0 782.0 803.0 821.0 835.0 848.0 853.0 861.0 866.0 862.0 870.0 876.0 881.0 874.0 876.0 879.0 869.0 874.0 881.0 881.0 877.0 883.0 889.0 889.0 902.0 917.0 935.0 938.0 947.0 953.0 944.0 947.0 948.0 948.0 933.0 936.0 939.0 945.0 928.0 925.0 925.0 906.0 906.0 906.0 907.0 892.0 893.0 893.0 877.0 874.0 874.0 875.0 869.0 873.0 876.0 872.0 874.0 876.0 877.0 871.0 871.0 870.0 868.0 860.0 856.0 853.0 851.0 852.0 855.0 859.0 858.0 858.0 861.0 868.0 875.0 881.0 887.0 889.0 893.0 895.0 893.0 896.0 899.0 904.0 903.0 907.0 910.0 907.0 908.0 908.0 908.0 901.0 899.0 894.0 891.0 890.0 893.0 896.0 895.0 902.0 909.0 914.0 913.0 918.0 932.0 941.0 949.0 952.0 953.0 945.0 944.0 945.0 941.0 947.0 956.0 968.0 982.0 1000.0 1012.0 1026.0 1045.0 1062.0 1075.0 1085.0 1098.0 1105.0 1110.0 1102.0 1103.0 1101.0 1106.0 1124.0 1135.0 1144.0 1128.0 1128.0 1129.0 1108.0 1104.0 1106.0 1129.0 1155.0 1175.0 1201.0 1224.0 1245.0 1269.0 1288.0 1300.0 1311.0 1323.0 1316.0 1313.0 1306.0 1300.0 1277.0 1274.0 1272.0 1272.0 1279.0 1292.0 1303.0 1307.0 1314.0 1315.0 1310.0 1292.0 1289.0 1287.0 1275.0 1276.0 1275.0 1277.0 1270.0 1276.0 1287.0 1294.0 1306.0 1319.0 1333.0 1348.0 1348.0 1363.0 1378.0 1395.0 1409.0 1425.0 1451.0 1470.0 1480.0 1488.0 1511.0 1528.0 -9999.0 -9999.0 -9999.0 -9999.0 -9999.0 -9999.0 -9999.0 -9999.0 -9999.0 -9999.0 -9999.0 -9999.0 -9999.0 -9999.0 -9999.0 -9999.0 -9999.0 -9999.0 -9999.0 -9999.0 -9999.0
-9999.0 -9999.0 -9999.0 -9999.0 -9999.0 -9999.0 -9999.0 -9999.0 -9999.0 -9999.0 -9999.0 -9999.0 -9999.0 -9999.0 -9999.0 -9999.0 -9999.0 -9999.0 -9999.0 -9999.0 -9999.0 -9999.0 -9999.0 -9999.0 -9999.0 -9999.0 -9999.0 -9999.0 -9999.0 -9999.0 -9999.0 -9999.0 -9999.0 -9999.0 -9999.0 -9999.0 -9999.0 -9999.0 -9999.0 -9999.0 -9999.0 -9999.0 -9999.0 -9999.0 -9999.0 -9999.0 -9999.0 -9999.0 -9999.0 -9999.0 -9999.0 -9999.0 -9999.0 -9999.0 -9999.0 -9999.0 -9999.0 -9999.0 -9999.0 -9999.0 -9999.0 -9999.0 -9999.0 -9999.0 -9999.0 -9999.0 -9999.0 -9999.0 -9999.0 -9999.0 -9999.0 -9999.0 -9999.0 -9999.0 -9999.0 -9999.0 -9999.0 -9999.0 -9999.0 -9999.0 -9999.0 -9999.0 -9999.0 -9999.0 -9999.0 -9999.0 -9999.0 -9999.0 -9999.0 -9999.0 -9999.0 -9999.0 -9999.0 -9999.0 806.0 804.0 792.0 784.0 784.0 776.0 759.0 750.0 738.0 722.0 703.0 681.0 671.0 659.0 650.0 646.0 659.0 660.0 667.0 673.0 664.0 660.0 653.0 645.0 633.0 651.0 669.0 676.0 699.0 714.0 729.0 746.0 751.0 751.0 739.0 722.0 702.0 684.0 661.0 644.0 635.0 630.0 637.0 644.0 649.0 635.0 633.0 630.0 626.0 603.0 603.0 596.0 581.0 579.0 578.0 577.0 575.0 576.0 576.0 581.0 585.0 587.0 590.0 606.0 612.0 618.0 647.0 650.0 650.0 652.0 671.0 672.0 670.0 670.0 682.0 674.0 669.0 679.0 680.0 686.0 690.0 701.0 701.0 701.0 709.0 710.0 713.0 720.0 730.0 733.0 729.0 737.0 733.0 730.0 726.0 738.0 743.0 743.0 748.0 750.0 749.0 746.0 726.0 726.0 730.0 741.0 750.0 764.0 783.0 804.0 819.0 832.0 843.0 842.0 848.0 854.0 852.0 862.0 868.0 872.0 863.0 864.0 865.0 848.0 850.0 857.0 867.0 867.0 874.0 880.0 876.0 887.0 904.0 923.0 926.0 936.0 941.0 944.0 935.0 934.0 933.0 917.0 919.0 919.0 922.0 909.0 909.0 908.0 891.0 890.0 889.0 890.0 879.0 879.0 879.0 866.0 864.0 863.0 866.0 859.0 865.0 870.0 872.0 869.0 871.0 871.0 865.0 865.0 865.0 865.0 857.0 854.0 851.0 848.0 850.0 854.0 856.0 854.0 856.0 861.0 872.0 878.0 882.0 885.0 885.0 888.0 890.0 887.0 890.0 890.0 894.0 894.0 898.0 902.0 905.0 902.0 903.0 903.0 896.0 893.0 888.0 886.0 882.0 888.0 891.0 893.0 899.0 905.0 909.0 910.0 918.0 930.0 927.0 936.0 942.0 944.0 937.0 938.0 938.0 940.0 946.0 954.0 965.0 981.0 998.0 1011.0 1026.0 1044.0 1059.0 1073.0 1078.0 1088.0 1094.0 1099.0 1085.0 1081.0 1081.0 1083.0 1103.0 1117.0 1125.0 1116.0 1113.0 1111.0 1096.0 1091.0 1111.0 1136.0 1159.0 1179.0 1202.0 1224.0 1248.0 1272.0 1289.0 1297.0 1304.0 1313.0 1316.0 1301.0 1296.0 1289.0 1264.0 1260.0 1257.0 1260.0 1275.0 1290.0 1299.0 1298.0 1302.0 1300.0 1297.0 1278.0 1276.0 1274.0 1262.0 1263.0 1263.0 1267.0 1262.0 1271.0 1271.0 1282.0 1293.0 1306.0 1319.0 1338.0 1352.0 1365.0 1378.0 1398.0 1411.0 1427.0 1455.0 1472.0 1482.0 1493.0 1522.0 1538.0 1550.0 -9999.0 1566.0 1566.0 -9999.0 -9999.0 -9999.0 -9999.0 -9999.0 -9999.0 -9999.0 -9999.0 -9999.0 -9999.0 -9999.0 -9999.0 -9999.0 -9999.0 -9999.0 -9999.0 -9999.0
-9999.0 -9999.0 -9999.0 -9999.0 -9999.0 -9999.0 -9999.0 -9999.0 -9999.0 -9999.0 -9999.0 -9999.0 -9999.0 -9999.0 -9999.0 -9999.0 -9999.0 -9999.0 -9999.0 -9999.0 -9999.0 -9999.0 -9999.0 -9999.0 -9999.0 -9999.0 -9999.0 -9999.0 -9999.0 -9999.0 -9999.0 -9999.0 -9999.0 -9999.0 -9999.0 -9999.0 -9999.0 -9999.0 -9999.0 -9999.0 -9999.0 -9999.0 -9999.0 -9999.0 -9999.0 -9999.0 -9999.0 -9999.0 -9999.0 -9999.0 -9999.0 -9999.0 -9999.0 -9999.0 -9999.0 -9999.0 -9999.0 -9999.0 -9999.0 -9999.0 -9999.0 -9999.0 -9999.0 -9999.0 -9999.0 -9999.0 -9999.0 -9999.0 -9999.0 -9999.0 -9999.0 -9999.0 -9999.0 -9999.0 -9999.0 -9999.0 -9999.0 -9999.0 -9999.0 -9999.0 -9999.0 -9999.0 -9999.0 -9999.0 -9999.0 -9999.0 -9999.0 -9999.0 -9999.0 -9999.0 816.0 816.0 814.0 804.0 802.0 800.0 787.0 781.0 774.0 768.0 753.0 744.0 735.0 722.0 703.0 683.0 668.0 661.0 650.0 640.0 650.0 650.0 657.0 663.0 653.0 654.0 650.0 642.0 624.0 633.0 655.0 681.0 701.0 717.0 733.0 746.0 749.0 747.0 735.0 717.0 699.0 680.0 658.0 642.0 630.0 630.0 626.0 633.0 633.0 620.0 618.0 616.0 615.0 593.0 587.0 583.0 576.0 576.0 574.0 574.0 575.0 575.5 576.0 589.0 592.0 596.0 599.0 622.0 630.0 639.0 647.0 668.0 669.0 669.0 687.0 689.0 689.0 688.0 697.0 690.0 683.0 693.0 693.0 698.0 700.0 708.0 709.0 709.0 711.0 711.0 715.0 723.0 734.0 743.0 743.0 751.0 747.0 744.0 740.0 744.0 742.0 744.0 748.0 738.0 734.0 729.0 715.0 720.0 727.0 739.0 749.0 764.0 785.0 802.0 815.0 826.0 835.0 829.0 835.0 840.0 841.0 848.0 856.0 860.0 852.0 854.0 851.0 827.0 835.0 847.0 858.0 858.0 863.0 868.0 876.0 877.0 894.0 912.0 912.0 923.0 923.0 930.0 919.0 921.0 920.0 902.0 902.0 903.0 906.0 894.0 893.0 891.0 879.0 877.0 877.0 877.0 869.0 869.0 867.0 866.0 854.0 853.0 856.0 848.0 848.0 854.0 862.0 855.0 861.0 864.0 857.0 859.0 859.0 858.0 846.0 846.0 846.0 846.0 848.0 850.0 853.0 855.0 860.0 866.0 877.0 880.0 882.0 882.0 881.0 881.0 882.0 885.0 881.0 885.0 890.0 891.0 895.0 898.0 900.0 898.0 899.0 898.0 892.0 887.0 882.0 878.0 878.0 884.0 888.0 894.0 894.0 898.0 902.0 904.0 909.0 915.0 922.0 931.0 935.0 936.0 930.0 933.0 935.0 940.0 942.0 949.0 963.0 980.0 995.0 1009.0 1025.0 1040.0 1055.0 1055.0 1059.0 1068.0 1074.0 1080.0 1067.0 1065.0 1068.0 1082.0 1100.0 1112.0 1116.0 1104.0 1097.0 1089.0 1084.0 1101.0 1123.0 1141.0 1160.0 1180.0 1204.0 1224.0 1225.0 1248.0 1272.0 1284.0 1292.0 1295.0 1298.0 1286.0 1279.0 1271.0 1248.0 1244.0 1237.0 1253.0 1269.0 1283.0 1294.0 1287.0 1287.0 1284.0 1280.0 1267.0 1265.0 1265.0 1262.0 1250.0 1250.0 1252.0 1247.0 1257.0 1268.0 1280.0 1298.0 1310.0 1323.0 1343.0 1356.0 1368.0 1380.0 1403.0 1414.0 1432.0 1458.0 1473.0 1485.0 1498.0 1524.0 1524.0 1539.0 1545.0 1554.0 1560.0 -9999.0 -9999.0 -9999.0 -9999.0 -9999.0 -9999.0 -9999.0 -9999.0 -9999.0 -9999.0 -9999.0 -9999.0 -9999.0 -9999.0 -9999.0 -9999.0 -9999.0
-9999.0 -9999.0 -9999.0 -9999.0 -9999.0 -9999.0 -9999.0 -9999.0 -9999.0 -9999.0 -9999.0 -9999.0 -9999.0 -9999.0 -9999.0 -9999.0 -9999.0 -9999.0 -9999.0 -9999.0 -9999.0 -9999.0 -9999.0 -9999.0 -9999.0 -9999.0 -9999.0 -9999.0 -9999.0 -9999.0 -9999.0 -9999.0 -9999.0 -9999.0 -9999.0 -9999.0 -9999.0 -9999.0 -9999.0 -9999.0 -9999.0 -9999.0 -9999.0 -9999.0 -9999.0 -9999.0 -9999.0 -9999.0 -9999.0 -9999.0 -9999.0 -9999.0 -9999.0 -9999.0 -9999.0 -9999.0 -9999.0 -9999.0 -9999.0 -9999.0 -9999.0 -9999.0 -9999.0 -9999.0 -9999.0 -9999.0 -9999.0 -9999.0 -9999.0 -9999.0 -9999.0 -9999.0 -9999.0 -9999.0 -9999.0 -9999.0 -9999.0 -9999.0 -9999.0 -9999.0 -9999.0 -9999.0 -9999.0 -9999.0 -9999.0 817.0 816.0 816.0 818.0 812.0 810.0 807.0 805.0 791.0 790.0 789.0 787.0 770.0 765.0 760.0 746.0 739.0 730.0 718.0 699.0 685.0 671.0 659.0 659.0 645.0 630.0 633.0 641.0 650.0 644.0 643.0 638.0 630.0 621.0 637.0 659.0 684.0 702.0 718.0 734.0 744.0 746.0 743.0 735.0 711.0 696.0 696.0 677.0 658.0 641.0 627.0 616.0 614.0 618.0 606.0 603.0 599.0 597.0 581.0 579.0 577.0 573.0 574.0 573.0 574.0 580.0 583.0 585.0 589.0 599.0 604.0 608.0 632.0 645.0 657.0 666.0 683.0 684.0 685.0 703.0 703.0 702.0 701.0 707.0 703.0 698.0 702.0 701.0 703.0 707.0 709.0 710.0 710.0 704.0 702.0 702.0 708.0 711.0 727.0 746.0 751.0 760.0 756.0 750.0 753.0 740.0 738.0 741.0 725.0 721.0 716.0 708.0 716.0 724.0 734.0 755.0 755.0 767.0 782.0 795.0 809.0 821.0 825.0 831.0 836.0 841.0 843.0 847.0 850.0 830.0 828.0 829.0 827.0 822.0 838.0 850.0 848.0 853.0 857.0 857.0 857.0 870.0 884.0 883.0 897.0 908.0 916.0 903.0 905.0 904.0 886.0 887.0 889.0 892.0 882.0 881.0 881.0 879.0 867.0 866.0 867.0 859.0 859.0 859.0 857.0 844.0 842.0 842.0 832.0 835.0 841.0 848.0 841.0 848.0 853.0 844.0 847.0 850.0 848.0 840.0 843.0 845.0 844.0 844.0 847.0 847.0 853.0 860.0 867.0 872.0 878.0 880.0 880.0 877.0 876.0 877.0 878.0 876.0 879.0 884.0 886.0 891.0 895.0 896.0 894.0 895.0 894.0 888.0 888.0 882.0 876.0 869.0 874.0 880.0 887.0 892.0 896.0 899.0 901.0 907.0 913.0 922.0 921.0 925.0 928.0 925.0 929.0 933.0 937.0 938.0 947.0 947.0 960.0 977.0 993.0 1006.0 1016.0 1033.0 1048.0 1048.0 1058.0 1063.0 1066.0 1050.0 1050.0 1063.0 1082.0 1094.0 1101.0 1104.0 1083.0 1075.0 1069.0 1082.0 1112.0 1112.0 1129.0 1145.0 1161.0 1180.0 1204.0 1224.0 1247.0 1267.0 1279.0 1286.0 1287.0 1287.0 1268.0 1260.0 1254.0 1236.0 1227.0 1226.0 1248.0 1261.0 1273.0 1283.0 1283.0 1271.0 1272.0 1269.0 1258.0 1255.0 1251.0 1248.0 1236.0 1238.0 1243.0 1248.0 1257.0 1271.0 1285.0 1304.0 1315.0 1329.0 1348.0 1360.0 1372.0 1385.0 1409.0 1409.0 1420.0 1438.0 1460.0 1477.0 1490.0 1506.0 1520.0 1534.0 1545.0 1543.0 1551.0 1557.0 -9999.0 -9999.0 -9999.0 -9999.0 -9999.0 -9999.0 -9999.0 -9999.0 -9999.0 -9999.0 -9999.0 -9999.0 -9999.0 -9999.0 -9999.0 -9999.0
-9999.0 -9999.0 -9999.0 -9999.0 -9999.0 -9999.0 -9999.0 -9999.0 -9999.0 -9999.0 -9999.0 -9999.0 -9999.0 -9999.0 -9999.0 -9999.0 -9999.0 -9999.0 -9999.0 -9999.0 -9999.0 -9999.0 -9999.0 -9999.0 -9999.0 -9999.0 -9999.0 -9999.0 -9999.0 -9999.0 -9999.0 -9999.0 -9999.0 -9999.0 -9999.0 -9999.0 -9999.0 -9999.0 -9999.0 -9999.0 -9999.0 -9999.0 -9999.0 -9999.0 -9999.0 -9999.0 -9999.0 -9999.0 -9999.0 -9999.0 -9999.0 -9999.0 -9999.0 -9999.0 -9999.0 -9999.0 -9999.0 -9999.0 -9999.0 -9999.0 -9999.0 -9999.0 -9999.0 -9999.0 -9999.0 -9999.0 -9999.0 -9999.0 -9999.0 -9999.0 -9999.0 -9999.0 -9999.0 -9999.0 -9999.0 -9999.0 -9999.0 -9999.0 -9999.0 -9999.0 800.0 804.0 803.0 806.0 809.0 813.0 806.0 809.0 811.0 812.0 803.0 800.0 796.0 775.0 770.0 769.0 769.0 744.0 750.0 750.0 736.0 736.0 731.0 723.0 706.0 693.0 681.0 665.0 651.0 634.0 622.0 626.0 635.0 642.0 644.0 628.0 624.0 619.0 625.0 643.0 662.0 684.0 702.0 718.0 734.0 734.0 741.0 742.0 740.0 725.0 704.0 691.0 676.0 659.0 641.0 627.0 612.0 605.0 605.0 593.0 589.0 586.0 585.0 576.0 574.0 573.0 573.0 572.0 573.0 574.0 585.0 588.0 592.0 595.0 615.0 620.0 624.0 650.0 665.0 676.0 684.0 692.0 695.0 700.0 706.0 704.0 706.0 709.0 710.0 709.0 706.0 707.0 701.0 700.0 704.0 704.0 705.0 705.0 704.0 689.0 689.0 697.0 701.0 719.0 741.0 759.0 758.0 761.0 761.0 752.0 735.0 729.0 728.0 715.0 715.0 710.0 703.0 704.0 714.0 726.0 749.0 758.0 769.0 782.0 790.0 803.0 816.0 823.0 830.0 835.0 839.0 834.0 833.0 834.0 813.0 812.0 810.0 810.0 803.0 816.0 830.0 833.0 839.0 844.0 848.0 851.0 860.0 869.0 872.0 884.0 893.0 900.0 887.0 889.0 888.0 886.0 876.0 879.0 881.0 872.0 872.0 872.0 871.0 860.0 858.0 858.0 849.0 849.0 847.0 846.0 831.0 828.0 828.0 822.0 824.0 827.0 833.0 825.0 833.0 839.0 830.0 833.0 835.0 836.0 831.0 838.0 842.0 843.0 841.0 842.0 846.0 854.0 864.0 870.0 874.0 874.0 876.0 877.0 873.0 873.0 873.0 874.0 869.0 872.0 877.0 879.0 886.0 886.0 890.0 887.0 889.0 891.0 891.0 884.0 878.0 872.0 865.0 870.0 877.0 885.0 888.0 893.0 896.0 899.0 904.0 909.0 914.0 913.0 916.0 921.0 916.0 921.0 925.0 929.0 927.0 933.0 944.0 957.0 973.0 989.0 1002.0 1009.0 1024.0 1037.0 1048.0 1042.0 1048.0 1050.0 1034.0 1040.0 1061.0 1080.0 1085.0 1085.0 1088.0 1061.0 1054.0 1050.0 1075.0 1101.0 1118.0 1132.0 1145.0 1160.0 1177.0 1202.0 1225.0 1244.0 1262.0 1270.0 1277.0 1277.0 1274.0 1251.0 1245.0 1240.0 1240.0 1221.0 1212.0 1218.0 1237.0 1251.0 1261.0 1269.0 1257.0 1258.0 1258.0 1246.0 1241.0 1237.0 1236.0 1226.0 1233.0 1240.0 1253.0 1264.0 1279.0 1295.0 1309.0 1309.0 1319.0 1340.0 1355.0 1366.0 1376.0 1398.0 1414.0 1424.0 1438.0 1465.0 1481.0 1494.0 1503.0 1513.0 1525.0 1535.0 1533.0 1542.0 1548.0 1545.0 -9999.0 -9999.0 -9999.0 -9999.0 -9999.0 -9999.0 -9999.0 -9999.0 -9999.0 -9999.0 -9999.0 -9999.0 -9999.0 -9999.0 -9999.0
